544 544 543 543 543 543 543 543 542 542 542 542 542 542 542 542 542 542 542 542 542 542 543 543 543 543 542 542 542 542 543 543 543 543 543 543 545 545 545 545 546 546 546 546 546 546 546 546 546 546 547 547 547 547 546 546 546 546 548 548 550 550 550 550 550 550 550 550 551 551 551 551 549 549 549 549 549 549 550 550 549 549 547 547 547 547 546 546 546 546 545 545 545 545 545 545 546 546 546 546 545 545 545 545 545 545 546 546 548 548 550 550 550 550 550 550 551 551 552 552 552 552 552 552 553 553 553 553 554 554 554 554 554 554 555 555 555 555 555 555 554 554 554 554 555 555 555 555 556 556 556 556 556 556 557 557 558 558 558 558 558 558 558 558 560 560 560 560 560 560 560 560 561 561 562 562 562 562 561 561 561 561 560 560 561 561 560 560 560 560 559 559 559 559 558 558 558 558 558 558 559 559 559 559 559 559 559 559 559 559 559 559 559 559 559 559 559 559 560 560 562 562 562 562 562 562 562 562 562 562 562 562 562 562 562 562 562 562 561 561 561 561 562 562 562 562 562 562 562 562 562 562 562 562 563 563 563 563 563 563 562 562 562 562 563 563 564 564 564 564 564 564 563 563 563 563 563 563 566 566 566 566 566 566 566 566 566 566 566 566 567 567 568 568 568 568 568 568 568 568 568 568 568 568 568 568 568 568 568 568 568 568 570 570 570 570 570 570 569 569 568 568 568 568 568 568 567 567 568 568 568 568 568 568 568 568 568 568 568 568 568 568 567 567 566 566 566 566 566 566 566 566 566 566 566 566 566 566 567 567 568 568 570 570 571 571 571 571 571 571 572 572 572 572 572 572 572 572 571 571 571 571 571 571 572 572 572 572 572 572 571 571 571 571 572 572 572 572 573 573 573 573 574 574 575 575 575 575 575 575 574 574 574 574 573 573 573 573 574 574 574 574 574 574 575 575 575 575 577 577 577 577 577 577 575 575 574 574 574 574 574 574 574 574 574 574 574 574 575 575 576 576 576 576 576 576 576 576 576 576 576 576 574 574 574 574 574 574 574 574 574 574 575 575 575 575 576 576 578 578 578 578 578 578 579 579 581 581 581 581 581 581 582 582 583 583 583 583 582 582 582 582 580 580 579 579 576 576 575 575 575 575 576 576 576 576 577 577 577 577 577 577 577 577 580 580 580 580 578 578 579 579 580 580 582 582 582 582 583 583 583 583 583 583 583 583 582 582 581 581 580 580 579 579 578 578 576 576 576 576 574 574 574 574 575 575 574 574 575 575 578 578 580 580 580 580 581 581 580 580 578 578 578 578 580 580 580 580 584 584 586 586 586 586 586 586 586 586 586 586 582 582 582 582 581 581 582 582 585 585 585 585 583 583 583 583 584 584 586 586 586 586 587 587 587 587 587 587 587 587 588 588 588 588 587 587 587 587 587 587
542 542 542 542 542 542 542 542 542 542 541 541 540 540 539 539 539 539 539 539 539 539 540 540 539 539 538 538 538 538 538 538 539 539 540 540 541 541 541 541 541 541 542 542 542 542 542 542 542 542 542 542 542 542 542 542 542 542 542 542 542 542 542 542 542 542 543 543 545 545 546 546 545 545 544 544 544 544 544 544 542 542 542 542 542 542 542 542 542 542 543 543 542 542 543 543 543 543 543 543 543 543 542 542 542 542 542 542 543 543 545 545 546 546 547 547 549 549 550 550 550 550 550 550 550 550 551 551 551 551 551 551 551 551 551 551 552 552 552 552 552 552 552 552 552 552 552 552 552 552 552 552 552 552 552 552 552 552 552 552 552 552 552 552 553 553 554 554 554 554 554 554 554 554 554 554 554 554 554 554 554 554 554 554 554 554 554 554 553 553 553 553 553 553 553 553 554 554 555 555 556 556 556 556 557 557 557 557 557 557 558 558 558 558 558 558 558 558 558 558 558 558 558 558 558 558 558 558 558 558 559 559 559 559 558 558 558 558 558 558 558 558 558 558 559 559 559 559 559 559 558 558 559 559 560 560 560 560 560 560 559 559 559 559 560 560 561 561 561 561 561 561 561 561 560 560 560 560 561 561 561 561 561 561 561 561 562 562 562 562 563 563 563 563 563 563 562 562 562 562 562 562 562 562 562 562 562 562 562 562 562 562 563 563 563 563 563 563 563 563 563 563 563 563 562 562 564 564 564 564 565 565 566 566 566 566 566 566 566 566 566 566 566 566 566 566 565 565 565 565 564 564 564 564 564 564 564 564 564 564 564 564 565 565 566 566 567 567 567 567 566 566 566 566 566 566 567 567 566 566 566 566 566 566 567 567 568 568 568 568 568 568 568 568 568 568 570 570 570 570 570 570 572 572 574 574 574 574 573 573 572 572 571 571 570 570 570 570 569 569 569 569 570 570 570 570 570 570 572 572 572 572 571 571 570 570 570 570 570 570 570 570 570 570 570 570 570 570 570 570 570 570 570 570 570 570 571 571 572 572 571 571 570 570 570 570 570 570 570 570 572 572 572 572 573 573 573 573 574 574 574 574 575 575 575 575 577 577 578 578 578 578 579 579 580 580 580 580 578 578 577 577 575 575 574 574 573 573 572 572 572 572 574 574 574 574 574 574 574 574 574 574 574 574 574 574 573 573 573 573 574 574 574 574 574 574 575 575 577 577 578 578 578 578 579 579 578 578 578 578 578 578 577 577 575 575 574 574 573 573 573 573 572 572 573 573 573 573 573 573 574 574 577 577 578 578 578 578 578 578 577 577 577 577 578 578 579 579 578 578 578 578 578 578 580 580 583 583 583 583 585 585 582 582 580 580 582 582 584 584 583 583 582 582 582 582 582 582 584 584 586 586 586 586 585 585 585 585 585 585 586 586 586 586 585 585 585 585 584 584
542 542 542 542 542 542 542 542 542 542 541 541 540 540 539 539 539 539 539 539 539 539 540 540 539 539 538 538 538 538 538 538 539 539 540 540 541 541 541 541 541 541 542 542 542 542 542 542 542 542 542 542 542 542 542 542 542 542 542 542 542 542 542 542 542 542 543 543 545 545 546 546 545 545 544 544 544 544 544 544 542 542 542 542 542 542 542 542 542 542 543 543 542 542 543 543 543 543 543 543 543 543 542 542 542 542 542 542 543 543 545 545 546 546 547 547 549 549 550 550 550 550 550 550 550 550 551 551 551 551 551 551 551 551 551 551 552 552 552 552 552 552 552 552 552 552 552 552 552 552 552 552 552 552 552 552 552 552 552 552 552 552 552 552 553 553 554 554 554 554 554 554 554 554 554 554 554 554 554 554 554 554 554 554 554 554 554 554 553 553 553 553 553 553 553 553 554 554 555 555 556 556 556 556 557 557 557 557 557 557 558 558 558 558 558 558 558 558 558 558 558 558 558 558 558 558 558 558 558 558 559 559 559 559 558 558 558 558 558 558 558 558 558 558 559 559 559 559 559 559 558 558 559 559 560 560 560 560 560 560 559 559 559 559 560 560 561 561 561 561 561 561 561 561 560 560 560 560 561 561 561 561 561 561 561 561 562 562 562 562 563 563 563 563 563 563 562 562 562 562 562 562 562 562 562 562 562 562 562 562 562 562 563 563 563 563 563 563 563 563 563 563 563 563 562 562 564 564 564 564 565 565 566 566 566 566 566 566 566 566 566 566 566 566 566 566 565 565 565 565 564 564 564 564 564 564 564 564 564 564 564 564 565 565 566 566 567 567 567 567 566 566 566 566 566 566 567 567 566 566 566 566 566 566 567 567 568 568 568 568 568 568 568 568 568 568 570 570 570 570 570 570 572 572 574 574 574 574 573 573 572 572 571 571 570 570 570 570 569 569 569 569 570 570 570 570 570 570 572 572 572 572 571 571 570 570 570 570 570 570 570 570 570 570 570 570 570 570 570 570 570 570 570 570 570 570 571 571 572 572 571 571 570 570 570 570 570 570 570 570 572 572 572 572 573 573 573 573 574 574 574 574 575 575 575 575 577 577 578 578 578 578 579 579 580 580 580 580 578 578 577 577 575 575 574 574 573 573 572 572 572 572 574 574 574 574 574 574 574 574 574 574 574 574 574 574 573 573 573 573 574 574 574 574 574 574 575 575 577 577 578 578 578 578 579 579 578 578 578 578 578 578 577 577 575 575 574 574 573 573 573 573 572 572 573 573 573 573 573 573 574 574 577 577 578 578 578 578 578 578 577 577 577 577 578 578 579 579 578 578 578 578 578 578 580 580 583 583 583 583 585 585 582 582 580 580 582 582 584 584 583 583 582 582 582 582 582 582 584 584 586 586 586 586 585 585 585 585 585 585 586 586 586 586 585 585 585 585 584 584
542 542 541 541 541 541 541 541 541 541 539 539 538 538 537 537 537 537 537 537 537 537 537 537 537 537 536 536 535 535 536 536 537 537 538 538 539 539 539 539 539 539 540 540 541 541 542 542 542 542 541 541 541 541 541 541 541 541 540 540 538 538 538 538 537 537 538 538 540 540 542 542 542 542 542 542 542 542 542 542 541 541 539 539 538 538 538 538 538 538 539 539 541 541 541 541 542 542 542 542 541 541 541 541 540 540 540 540 540 540 541 541 542 542 542 542 544 544 546 546 546 546 546 546 546 546 546 546 546 546 548 548 548 548 548 548 549 549 549 549 549 549 549 549 549 549 550 550 550 550 550 550 549 549 550 550 550 550 550 550 550 550 550 550 550 550 551 551 550 550 550 550 551 551 551 551 551 551 552 552 551 551 551 551 551 551 551 551 551 551 551 551 551 551 551 551 550 550 551 551 552 552 552 552 553 553 553 553 553 553 554 554 554 554 553 553 553 553 554 554 554 554 554 554 554 554 554 554 554 554 554 554 554 554 554 554 554 554 554 554 553 553 553 553 553 553 555 555 555 555 555 555 555 555 555 555 555 555 556 556 556 556 556 556 556 556 557 557 558 558 558 558 558 558 558 558 558 558 559 559 559 559 558 558 558 558 558 558 558 558 559 559 560 560 560 560 560 560 560 560 559 559 559 559 560 560 560 560 560 560 560 560 560 560 560 560 561 561 561 561 561 561 561 561 561 561 561 561 561 561 561 561 561 561 562 562 562 562 562 562 562 562 562 562 562 562 562 562 562 562 562 562 562 562 561 561 561 561 562 562 562 562 562 562 563 563 564 564 564 564 563 563 562 562 562 562 563 563 563 563 563 563 564 564 564 564 566 566 566 566 566 566 566 566 566 566 566 566 566 566 566 566 568 568 568 568 568 568 568 568 567 567 566 566 566 566 566 566 565 565 565 565 565 565 565 565 564 564 564 564 566 566 566 566 566 566 566 566 566 566 566 566 567 567 567 567 567 567 567 567 566 566 566 566 566 566 566 566 566 566 566 566 566 566 566 566 566 566 567 567 568 568 570 570 570 570 571 571 572 572 572 572 573 573 573 573 574 574 574 574 574 574 574 574 574 574 574 574 571 571 570 570 568 568 568 568 567 567 567 567 567 567 568 568 568 568 570 570 571 571 571 571 571 571 571 571 570 570 570 570 571 571 571 571 571 571 572 572 573 573 573 573 575 575 576 576 575 575 575 575 575 575 574 574 573 573 572 572 571 571 570 570 570 570 570 570 570 570 570 570 572 572 573 573 574 574 574 574 574 574 574 574 574 574 575 575 573 573 573 573 572 572 571 571 574 574 577 577 576 576 582 582 578 578 576 576 576 576 580 580 580 580 579 579 578 578 578 578 578 578 578 578 586 586 582 582 581 581 581 581 581 581 581 581 582 582 582 582 581 581
542 542 541 541 541 541 541 541 541 541 539 539 538 538 537 537 537 537 537 537 537 537 537 537 537 537 536 536 535 535 536 536 537 537 538 538 539 539 539 539 539 539 540 540 541 541 542 542 542 542 541 541 541 541 541 541 541 541 540 540 538 538 538 538 537 537 538 538 540 540 542 542 542 542 542 542 542 542 542 542 541 541 539 539 538 538 538 538 538 538 539 539 541 541 541 541 542 542 542 542 541 541 541 541 540 540 540 540 540 540 541 541 542 542 542 542 544 544 546 546 546 546 546 546 546 546 546 546 546 546 548 548 548 548 548 548 549 549 549 549 549 549 549 549 549 549 550 550 550 550 550 550 549 549 550 550 550 550 550 550 550 550 550 550 550 550 551 551 550 550 550 550 551 551 551 551 551 551 552 552 551 551 551 551 551 551 551 551 551 551 551 551 551 551 551 551 550 550 551 551 552 552 552 552 553 553 553 553 553 553 554 554 554 554 553 553 553 553 554 554 554 554 554 554 554 554 554 554 554 554 554 554 554 554 554 554 554 554 554 554 553 553 553 553 553 553 555 555 555 555 555 555 555 555 555 555 555 555 556 556 556 556 556 556 556 556 557 557 558 558 558 558 558 558 558 558 558 558 559 559 559 559 558 558 558 558 558 558 558 558 559 559 560 560 560 560 560 560 560 560 559 559 559 559 560 560 560 560 560 560 560 560 560 560 560 560 561 561 561 561 561 561 561 561 561 561 561 561 561 561 561 561 561 561 562 562 562 562 562 562 562 562 562 562 562 562 562 562 562 562 562 562 562 562 561 561 561 561 562 562 562 562 562 562 563 563 564 564 564 564 563 563 562 562 562 562 563 563 563 563 563 563 564 564 564 564 566 566 566 566 566 566 566 566 566 566 566 566 566 566 566 566 568 568 568 568 568 568 568 568 567 567 566 566 566 566 566 566 565 565 565 565 565 565 565 565 564 564 564 564 566 566 566 566 566 566 566 566 566 566 566 566 567 567 567 567 567 567 567 567 566 566 566 566 566 566 566 566 566 566 566 566 566 566 566 566 566 566 567 567 568 568 570 570 570 570 571 571 572 572 572 572 573 573 573 573 574 574 574 574 574 574 574 574 574 574 574 574 571 571 570 570 568 568 568 568 567 567 567 567 567 567 568 568 568 568 570 570 571 571 571 571 571 571 571 571 570 570 570 570 571 571 571 571 571 571 572 572 573 573 573 573 575 575 576 576 575 575 575 575 575 575 574 574 573 573 572 572 571 571 570 570 570 570 570 570 570 570 570 570 572 572 573 573 574 574 574 574 574 574 574 574 574 574 575 575 573 573 573 573 572 572 571 571 574 574 577 577 576 576 582 582 578 578 576 576 576 576 580 580 580 580 579 579 578 578 578 578 578 578 578 578 586 586 582 582 581 581 581 581 581 581 581 581 582 582 582 582 581 581
538 538 537 537 536 536 535 535 534 534 534 534 534 534 534 534 534 534 534 534 534 534 534 534 534 534 534 534 533 533 533 533 534 534 535 535 536 536 537 537 537 537 537 537 538 538 538 538 538 538 538 538 538 538 538 538 538 538 538 538 537 537 535 535 535 535 535 535 537 537 538 538 538 538 538 538 538 538 538 538 538 538 537 537 536 536 535 535 536 536 538 538 538 538 539 539 540 540 539 539 539 539 539 539 538 538 538 538 538 538 538 538 539 539 541 541 542 542 542 542 542 542 543 543 543 543 543 543 543 543 544 544 544 544 544 544 545 545 545 545 544 544 544 544 545 545 545 545 545 545 545 545 545 545 545 545 544 544 544 544 544 544 544 544 545 545 546 546 546 546 547 547 548 548 549 549 549 549 550 550 550 550 550 550 550 550 550 550 550 550 550 550 550 550 550 550 550 550 550 550 550 550 550 550 551 551 551 551 551 551 551 551 552 552 551 551 551 551 551 551 551 551 551 551 551 551 551 551 552 552 552 552 552 552 552 552 552 552 552 552 551 551 551 551 551 551 551 551 551 551 551 551 551 551 551 551 551 551 552 552 552 552 552 552 553 553 553 553 554 554 554 554 554 554 554 554 554 554 554 554 554 554 554 554 554 554 553 553 553 553 554 554 554 554 555 555 556 556 556 556 557 557 557 557 558 558 558 558 558 558 558 558 558 558 559 559 559 559 559 559 559 559 559 559 560 560 559 559 558 558 558 558 558 558 558 558 558 558 558 558 558 558 560 560 560 560 560 560 559 559 558 558 558 558 558 558 558 558 559 559 559 559 559 559 560 560 561 561 561 561 561 561 560 560 560 560 560 560 560 560 560 560 560 560 560 560 562 562 562 562 562 562 562 562 562 562 562 562 562 562 562 562 561 561 561 561 560 560 560 560 561 561 561 561 560 560 560 560 560 560 559 559 559 559 559 559 560 560 560 560 561 561 562 562 563 563 563 563 563 563 563 563 563 563 563 563 563 563 563 563 563 563 564 564 563 563 563 563 563 563 563 563 564 564 564 564 564 564 564 564 565 565 566 566 567 567 568 568 568 568 568 568 568 568 568 568 566 566 566 566 567 567 567 567 568 568 566 566 565 565 564 564 564 564 564 564 564 564 564 564 564 564 564 564 565 565 566 566 566 566 566 566 566 566 566 566 565 565 564 564 564 564 566 566 567 567 567 567 567 567 567 567 567 567 570 570 570 570 571 571 571 571 571 571 570 570 570 570 569 569 567 567 567 567 566 566 566 566 566 566 567 567 570 570 570 570 571 571 572 572 572 572 572 572 571 571 569 569 569 569 570 570 568 568 568 568 579 579 567 567 574 574 573 573 574 574 574 574 575 575 576 576 576 576 577 577 578 578 578 578 577 577 576 576 578 578 582 582 578 578 577 577 577 577 578 578 576 576 576 576
538 538 537 537 536 536 535 535 534 534 534 534 534 534 534 534 534 534 534 534 534 534 534 534 534 534 534 534 533 533 533 533 534 534 535 535 536 536 537 537 537 537 537 537 538 538 538 538 538 538 538 538 538 538 538 538 538 538 538 538 537 537 535 535 535 535 535 535 537 537 538 538 538 538 538 538 538 538 538 538 538 538 537 537 536 536 535 535 536 536 538 538 538 538 539 539 540 540 539 539 539 539 539 539 538 538 538 538 538 538 538 538 539 539 541 541 542 542 542 542 542 542 543 543 543 543 543 543 543 543 544 544 544 544 544 544 545 545 545 545 544 544 544 544 545 545 545 545 545 545 545 545 545 545 545 545 544 544 544 544 544 544 544 544 545 545 546 546 546 546 547 547 548 548 549 549 549 549 550 550 550 550 550 550 550 550 550 550 550 550 550 550 550 550 550 550 550 550 550 550 550 550 550 550 551 551 551 551 551 551 551 551 552 552 551 551 551 551 551 551 551 551 551 551 551 551 551 551 552 552 552 552 552 552 552 552 552 552 552 552 551 551 551 551 551 551 551 551 551 551 551 551 551 551 551 551 551 551 552 552 552 552 552 552 553 553 553 553 554 554 554 554 554 554 554 554 554 554 554 554 554 554 554 554 554 554 553 553 553 553 554 554 554 554 555 555 556 556 556 556 557 557 557 557 558 558 558 558 558 558 558 558 558 558 559 559 559 559 559 559 559 559 559 559 560 560 559 559 558 558 558 558 558 558 558 558 558 558 558 558 558 558 560 560 560 560 560 560 559 559 558 558 558 558 558 558 558 558 559 559 559 559 559 559 560 560 561 561 561 561 561 561 560 560 560 560 560 560 560 560 560 560 560 560 560 560 562 562 562 562 562 562 562 562 562 562 562 562 562 562 562 562 561 561 561 561 560 560 560 560 561 561 561 561 560 560 560 560 560 560 559 559 559 559 559 559 560 560 560 560 561 561 562 562 563 563 563 563 563 563 563 563 563 563 563 563 563 563 563 563 563 563 564 564 563 563 563 563 563 563 563 563 564 564 564 564 564 564 564 564 565 565 566 566 567 567 568 568 568 568 568 568 568 568 568 568 566 566 566 566 567 567 567 567 568 568 566 566 565 565 564 564 564 564 564 564 564 564 564 564 564 564 564 564 565 565 566 566 566 566 566 566 566 566 566 566 565 565 564 564 564 564 566 566 567 567 567 567 567 567 567 567 567 567 570 570 570 570 571 571 571 571 571 571 570 570 570 570 569 569 567 567 567 567 566 566 566 566 566 566 567 567 570 570 570 570 571 571 572 572 572 572 572 572 571 571 569 569 569 569 570 570 568 568 568 568 579 579 567 567 574 574 573 573 574 574 574 574 575 575 576 576 576 576 577 577 578 578 578 578 577 577 576 576 578 578 582 582 578 578 577 577 577 577 578 578 576 576 576 576
535 535 535 535 534 534 533 533 532 532 530 530 530 530 530 530 530 530 530 530 530 530 531 531 531 531 531 531 531 531 532 532 532 532 533 533 533 533 533 533 533 533 533 533 533 533 534 534 534 534 534 534 534 534 534 534 534 534 534 534 534 534 534 534 533 533 534 534 534 534 534 534 534 534 534 534 534 534 534 534 534 534 534 534 533 533 532 532 533 533 534 534 536 536 537 537 537 537 537 537 537 537 537 537 537 537 536 536 535 535 536 536 537 537 537 537 538 538 538 538 538 538 539 539 540 540 541 541 542 542 542 542 542 542 542 542 543 543 542 542 542 542 541 541 541 541 542 542 543 543 542 542 542 542 542 542 542 542 542 542 542 542 542 542 542 542 542 542 542 542 542 542 543 543 544 544 546 546 546 546 546 546 546 546 546 546 546 546 546 546 546 546 546 546 546 546 546 546 546 546 546 546 546 546 546 546 546 546 546 546 546 546 548 548 548 548 549 549 549 549 549 549 549 549 549 549 549 549 549 549 548 548 548 548 549 549 550 550 550 550 549 549 549 549 549 549 549 549 549 549 549 549 549 549 549 549 548 548 549 549 550 550 550 550 550 550 551 551 551 551 551 551 551 551 551 551 551 551 551 551 551 551 551 551 551 551 551 551 551 551 551 551 552 552 552 552 552 552 552 552 552 552 553 553 554 554 554 554 554 554 554 554 554 554 554 554 554 554 554 554 554 554 554 554 554 554 553 553 553 553 553 553 553 553 553 553 553 553 553 553 554 554 554 554 556 556 556 556 556 556 555 555 554 554 554 554 554 554 555 555 555 555 554 554 554 554 555 555 558 558 558 558 556 556 556 556 556 556 556 556 556 556 556 556 556 556 556 556 556 556 558 558 558 558 556 556 556 556 556 556 556 556 557 557 558 558 558 558 558 558 558 558 558 558 558 558 557 557 556 556 555 555 554 554 554 554 554 554 553 553 553 553 553 553 553 553 554 554 555 555 555 555 556 556 558 558 558 558 559 559 560 560 561 561 562 562 561 561 560 560 559 559 559 559 558 558 558 558 558 558 559 559 561 561 563 563 564 564 563 563 564 564 563 563 562 562 562 562 562 562 562 562 562 562 563 563 563 563 562 562 562 562 562 562 562 562 562 562 562 562 562 562 562 562 562 562 562 562 562 562 562 562 562 562 563 563 562 562 562 562 562 562 564 564 566 566 566 566 566 566 565 565 565 565 565 565 568 568 569 569 568 568 568 568 567 567 566 566 566 566 565 565 564 564 564 564 564 564 564 564 565 565 565 565 565 565 567 567 568 568 568 568 568 568 568 568 567 567 566 566 566 566 566 566 566 566 566 566 567 567 566 566 567 567 570 570 571 571 572 572 573 573 574 574 574 574 576 576 576 576 576 576 576 576 578 578 582 582 574 574 574 574 573 573 573 573 576 576 576 576
535 535 535 535 534 534 533 533 532 532 530 530 530 530 530 530 530 530 530 530 530 530 531 531 531 531 531 531 531 531 532 532 532 532 533 533 533 533 533 533 533 533 533 533 533 533 534 534 534 534 534 534 534 534 534 534 534 534 534 534 534 534 534 534 533 533 534 534 534 534 534 534 534 534 534 534 534 534 534 534 534 534 534 534 533 533 532 532 533 533 534 534 536 536 537 537 537 537 537 537 537 537 537 537 537 537 536 536 535 535 536 536 537 537 537 537 538 538 538 538 538 538 539 539 540 540 541 541 542 542 542 542 542 542 542 542 543 543 542 542 542 542 541 541 541 541 542 542 543 543 542 542 542 542 542 542 542 542 542 542 542 542 542 542 542 542 542 542 542 542 542 542 543 543 544 544 546 546 546 546 546 546 546 546 546 546 546 546 546 546 546 546 546 546 546 546 546 546 546 546 546 546 546 546 546 546 546 546 546 546 546 546 548 548 548 548 549 549 549 549 549 549 549 549 549 549 549 549 549 549 548 548 548 548 549 549 550 550 550 550 549 549 549 549 549 549 549 549 549 549 549 549 549 549 549 549 548 548 549 549 550 550 550 550 550 550 551 551 551 551 551 551 551 551 551 551 551 551 551 551 551 551 551 551 551 551 551 551 551 551 551 551 552 552 552 552 552 552 552 552 552 552 553 553 554 554 554 554 554 554 554 554 554 554 554 554 554 554 554 554 554 554 554 554 554 554 553 553 553 553 553 553 553 553 553 553 553 553 553 553 554 554 554 554 556 556 556 556 556 556 555 555 554 554 554 554 554 554 555 555 555 555 554 554 554 554 555 555 558 558 558 558 556 556 556 556 556 556 556 556 556 556 556 556 556 556 556 556 556 556 558 558 558 558 556 556 556 556 556 556 556 556 557 557 558 558 558 558 558 558 558 558 558 558 558 558 557 557 556 556 555 555 554 554 554 554 554 554 553 553 553 553 553 553 553 553 554 554 555 555 555 555 556 556 558 558 558 558 559 559 560 560 561 561 562 562 561 561 560 560 559 559 559 559 558 558 558 558 558 558 559 559 561 561 563 563 564 564 563 563 564 564 563 563 562 562 562 562 562 562 562 562 562 562 563 563 563 563 562 562 562 562 562 562 562 562 562 562 562 562 562 562 562 562 562 562 562 562 562 562 562 562 562 562 563 563 562 562 562 562 562 562 564 564 566 566 566 566 566 566 565 565 565 565 565 565 568 568 569 569 568 568 568 568 567 567 566 566 566 566 565 565 564 564 564 564 564 564 564 564 565 565 565 565 565 565 567 567 568 568 568 568 568 568 568 568 567 567 566 566 566 566 566 566 566 566 566 566 567 567 566 566 567 567 570 570 571 571 572 572 573 573 574 574 574 574 576 576 576 576 576 576 576 576 578 578 582 582 574 574 574 574 573 573 573 573 576 576 576 576
534 534 534 534 532 532 529 529 527 527 527 527 526 526 526 526 527 527 527 527 527 527 528 528 529 529 529 529 529 529 530 530 530 530 531 531 531 531 532 532 532 532 531 531 531 531 532 532 533 533 533 533 533 533 533 533 532 532 533 533 533 533 532 532 531 531 531 531 532 532 532 532 532 532 531 531 531 531 531 531 532 532 531 531 530 530 529 529 529 529 530 530 532 532 534 534 533 533 534 534 534 534 534 534 534 534 534 534 533 533 533 533 534 534 534 534 533 533 533 533 534 534 534 534 535 535 535 535 536 536 538 538 538 538 538 538 540 540 538 538 538 538 537 537 535 535 535 535 536 536 537 537 538 538 538 538 540 540 540 540 541 541 541 541 541 541 541 541 541 541 541 541 542 542 542 542 542 542 543 543 543 543 543 543 543 543 543 543 543 543 543 543 543 543 543 543 544 544 544 544 544 544 543 543 544 544 544 544 544 544 544 544 543 543 544 544 544 544 545 545 545 545 545 545 545 545 545 545 544 544 544 544 545 545 545 545 544 544 544 544 544 544 544 544 545 545 545 545 545 545 546 546 546 546 545 545 545 545 545 545 546 546 547 547 548 548 549 549 549 549 550 550 551 551 551 551 550 550 550 550 550 550 550 550 550 550 550 550 548 548 549 549 549 549 548 548 547 547 547 547 547 547 549 549 550 550 550 550 550 550 550 550 550 550 551 551 551 551 551 551 551 551 551 551 550 550 550 550 550 550 551 551 551 551 551 551 551 551 551 551 552 552 552 552 553 553 553 553 553 553 552 552 551 551 550 550 550 550 550 550 550 550 550 550 550 550 550 550 552 552 552 552 552 552 551 551 551 551 551 551 551 551 551 551 550 550 550 550 551 551 552 552 552 552 553 553 553 553 553 553 553 553 554 554 554 554 554 554 555 555 555 555 555 555 555 555 554 554 554 554 553 553 553 553 552 552 552 552 552 552 552 552 552 552 552 552 552 552 553 553 553 553 554 554 554 554 555 555 556 556 558 558 558 558 558 558 558 558 558 558 556 556 556 556 554 554 554 554 554 554 555 555 557 557 558 558 558 558 558 558 558 558 558 558 558 558 556 556 555 555 555 555 556 556 556 556 555 555 555 555 557 557 558 558 558 558 557 557 557 557 557 557 557 557 557 557 556 556 555 555 556 556 556 556 558 558 559 559 559 559 561 561 562 562 563 563 564 564 563 563 562 562 562 562 562 562 563 563 564 564 564 564 562 562 562 562 564 564 564 564 562 562 562 562 562 562 562 562 563 563 564 564 564 564 563 563 564 564 566 566 566 566 566 566 566 566 565 565 565 565 565 565 564 564 562 562 562 562 562 562 562 562 565 565 566 566 568 568 570 570 570 570 571 571 573 573 574 574 575 575 568 568 568 568 566 566 566 566 568 568 568 568 573 573 573 573 573 573 571 571
534 534 534 534 532 532 529 529 527 527 527 527 526 526 526 526 527 527 527 527 527 527 528 528 529 529 529 529 529 529 530 530 530 530 531 531 531 531 532 532 532 532 531 531 531 531 532 532 533 533 533 533 533 533 533 533 532 532 533 533 533 533 532 532 531 531 531 531 532 532 532 532 532 532 531 531 531 531 531 531 532 532 531 531 530 530 529 529 529 529 530 530 532 532 534 534 533 533 534 534 534 534 534 534 534 534 534 534 533 533 533 533 534 534 534 534 533 533 533 533 534 534 534 534 535 535 535 535 536 536 538 538 538 538 538 538 540 540 538 538 538 538 537 537 535 535 535 535 536 536 537 537 538 538 538 538 540 540 540 540 541 541 541 541 541 541 541 541 541 541 541 541 542 542 542 542 542 542 543 543 543 543 543 543 543 543 543 543 543 543 543 543 543 543 543 543 544 544 544 544 544 544 543 543 544 544 544 544 544 544 544 544 543 543 544 544 544 544 545 545 545 545 545 545 545 545 545 545 544 544 544 544 545 545 545 545 544 544 544 544 544 544 544 544 545 545 545 545 545 545 546 546 546 546 545 545 545 545 545 545 546 546 547 547 548 548 549 549 549 549 550 550 551 551 551 551 550 550 550 550 550 550 550 550 550 550 550 550 548 548 549 549 549 549 548 548 547 547 547 547 547 547 549 549 550 550 550 550 550 550 550 550 550 550 551 551 551 551 551 551 551 551 551 551 550 550 550 550 550 550 551 551 551 551 551 551 551 551 551 551 552 552 552 552 553 553 553 553 553 553 552 552 551 551 550 550 550 550 550 550 550 550 550 550 550 550 550 550 552 552 552 552 552 552 551 551 551 551 551 551 551 551 551 551 550 550 550 550 551 551 552 552 552 552 553 553 553 553 553 553 553 553 554 554 554 554 554 554 555 555 555 555 555 555 555 555 554 554 554 554 553 553 553 553 552 552 552 552 552 552 552 552 552 552 552 552 552 552 553 553 553 553 554 554 554 554 555 555 556 556 558 558 558 558 558 558 558 558 558 558 556 556 556 556 554 554 554 554 554 554 555 555 557 557 558 558 558 558 558 558 558 558 558 558 558 558 556 556 555 555 555 555 556 556 556 556 555 555 555 555 557 557 558 558 558 558 557 557 557 557 557 557 557 557 557 557 556 556 555 555 556 556 556 556 558 558 559 559 559 559 561 561 562 562 563 563 564 564 563 563 562 562 562 562 562 562 563 563 564 564 564 564 562 562 562 562 564 564 564 564 562 562 562 562 562 562 562 562 563 563 564 564 564 564 563 563 564 564 566 566 566 566 566 566 566 566 565 565 565 565 565 565 564 564 562 562 562 562 562 562 562 562 565 565 566 566 568 568 570 570 570 570 571 571 573 573 574 574 575 575 568 568 568 568 566 566 566 566 568 568 568 568 573 573 573 573 573 573 571 571
527 527 526 526 524 524 522 522 522 522 522 522 522 522 523 523 524 524 524 524 524 524 525 525 525 525 525 525 525 525 525 525 526 526 526 526 527 527 527 527 527 527 527 527 526 526 527 527 528 528 528 528 528 528 528 528 528 528 529 529 529 529 529 529 528 528 527 527 527 527 528 528 527 527 526 526 526 526 526 526 528 528 528 528 527 527 526 526 526 526 526 526 528 528 530 530 530 530 530 530 531 531 532 532 532 532 531 531 531 531 531 531 531 531 531 531 531 531 531 531 531 531 532 532 533 533 534 534 534 534 535 535 535 535 535 535 535 535 534 534 534 534 534 534 533 533 533 533 534 534 534 534 534 534 535 535 536 536 536 536 537 537 537 537 537 537 537 537 537 537 538 538 538 538 538 538 538 538 538 538 540 540 540 540 541 541 542 542 542 542 541 541 541 541 542 542 542 542 542 542 542 542 542 542 541 541 542 542 542 542 542 542 541 541 542 542 542 542 542 542 542 542 542 542 542 542 542 542 542 542 542 542 542 542 542 542 542 542 542 542 542 542 542 542 542 542 542 542 542 542 542 542 542 542 542 542 542 542 542 542 542 542 543 543 544 544 544 544 545 545 546 546 547 547 547 547 546 546 546 546 547 547 547 547 546 546 545 545 544 544 544 544 544 544 544 544 543 543 543 543 543 543 544 544 544 544 546 546 546 546 546 546 546 546 546 546 546 546 546 546 546 546 546 546 546 546 546 546 546 546 547 547 549 549 549 549 549 549 549 549 550 550 550 550 550 550 550 550 550 550 550 550 548 548 548 548 547 547 547 547 546 546 546 546 546 546 546 546 547 547 547 547 548 548 547 547 547 547 547 547 548 548 548 548 548 548 548 548 549 549 549 549 549 549 549 549 549 549 549 549 549 549 549 549 550 550 551 551 551 551 551 551 551 551 552 552 551 551 550 550 550 550 550 550 550 550 550 550 550 550 550 550 550 550 550 550 550 550 550 550 550 550 550 550 552 552 552 552 553 553 554 554 555 555 556 556 555 555 554 554 554 554 554 554 553 553 553 553 553 553 553 553 553 553 554 554 553 553 554 554 555 555 555 555 554 554 553 553 553 553 553 553 554 554 554 554 553 553 553 553 554 554 555 555 554 554 554 554 554 554 554 554 554 554 554 554 554 554 554 554 554 554 554 554 554 554 554 554 554 554 555 555 556 556 557 557 558 558 556 556 555 555 555 555 555 555 556 556 558 558 556 556 556 556 557 557 558 558 559 559 559 559 558 558 558 558 559 559 561 561 561 561 562 562 562 562 562 562 563 563 564 564 564 564 563 563 563 563 562 562 562 562 560 560 554 554 554 554 553 553 554 554 558 558 562 562 562 562 566 566 568 568 569 569 569 569 570 570 574 574 564 564 563 563 563 563 563 563 563 563 565 565 573 573 573 573 570 570 570 570
527 527 526 526 524 524 522 522 522 522 522 522 522 522 523 523 524 524 524 524 524 524 525 525 525 525 525 525 525 525 525 525 526 526 526 526 527 527 527 527 527 527 527 527 526 526 527 527 528 528 528 528 528 528 528 528 528 528 529 529 529 529 529 529 528 528 527 527 527 527 528 528 527 527 526 526 526 526 526 526 528 528 528 528 527 527 526 526 526 526 526 526 528 528 530 530 530 530 530 530 531 531 532 532 532 532 531 531 531 531 531 531 531 531 531 531 531 531 531 531 531 531 532 532 533 533 534 534 534 534 535 535 535 535 535 535 535 535 534 534 534 534 534 534 533 533 533 533 534 534 534 534 534 534 535 535 536 536 536 536 537 537 537 537 537 537 537 537 537 537 538 538 538 538 538 538 538 538 538 538 540 540 540 540 541 541 542 542 542 542 541 541 541 541 542 542 542 542 542 542 542 542 542 542 541 541 542 542 542 542 542 542 541 541 542 542 542 542 542 542 542 542 542 542 542 542 542 542 542 542 542 542 542 542 542 542 542 542 542 542 542 542 542 542 542 542 542 542 542 542 542 542 542 542 542 542 542 542 542 542 542 542 543 543 544 544 544 544 545 545 546 546 547 547 547 547 546 546 546 546 547 547 547 547 546 546 545 545 544 544 544 544 544 544 544 544 543 543 543 543 543 543 544 544 544 544 546 546 546 546 546 546 546 546 546 546 546 546 546 546 546 546 546 546 546 546 546 546 546 546 547 547 549 549 549 549 549 549 549 549 550 550 550 550 550 550 550 550 550 550 550 550 548 548 548 548 547 547 547 547 546 546 546 546 546 546 546 546 547 547 547 547 548 548 547 547 547 547 547 547 548 548 548 548 548 548 548 548 549 549 549 549 549 549 549 549 549 549 549 549 549 549 549 549 550 550 551 551 551 551 551 551 551 551 552 552 551 551 550 550 550 550 550 550 550 550 550 550 550 550 550 550 550 550 550 550 550 550 550 550 550 550 550 550 552 552 552 552 553 553 554 554 555 555 556 556 555 555 554 554 554 554 554 554 553 553 553 553 553 553 553 553 553 553 554 554 553 553 554 554 555 555 555 555 554 554 553 553 553 553 553 553 554 554 554 554 553 553 553 553 554 554 555 555 554 554 554 554 554 554 554 554 554 554 554 554 554 554 554 554 554 554 554 554 554 554 554 554 554 554 555 555 556 556 557 557 558 558 556 556 555 555 555 555 555 555 556 556 558 558 556 556 556 556 557 557 558 558 559 559 559 559 558 558 558 558 559 559 561 561 561 561 562 562 562 562 562 562 563 563 564 564 564 564 563 563 563 563 562 562 562 562 560 560 554 554 554 554 553 553 554 554 558 558 562 562 562 562 566 566 568 568 569 569 569 569 570 570 574 574 564 564 563 563 563 563 563 563 563 563 565 565 573 573 573 573 570 570 570 570
525 525 524 524 522 522 521 521 520 520 519 519 519 519 520 520 521 521 521 521 521 521 522 522 523 523 523 523 523 523 524 524 525 525 525 525 526 526 526 526 526 526 525 525 525 525 525 525 524 524 524 524 524 524 524 524 525 525 525 525 526 526 526 526 525 525 525 525 524 524 524 524 524 524 524 524 523 523 522 522 524 524 525 525 524 524 523 523 522 522 523 523 524 524 525 525 525 525 525 525 526 526 528 528 529 529 528 528 528 528 528 528 528 528 528 528 527 527 527 527 527 527 529 529 530 530 531 531 532 532 532 532 532 532 533 533 533 533 532 532 531 531 530 530 530 530 530 530 531 531 532 532 532 532 533 533 534 534 534 534 535 535 535 535 535 535 535 535 535 535 535 535 535 535 535 535 535 535 536 536 536 536 534 534 534 534 535 535 536 536 536 536 536 536 536 536 537 537 538 538 538 538 538 538 538 538 538 538 538 538 538 538 538 538 538 538 538 538 538 538 538 538 538 538 538 538 538 538 538 538 539 539 538 538 538 538 538 538 538 538 538 538 538 538 538 538 538 538 538 538 539 539 539 539 539 539 540 540 540 540 541 541 541 541 542 542 542 542 543 543 544 544 544 544 544 544 544 544 544 544 544 544 543 543 543 543 542 542 542 542 542 542 542 542 542 542 542 542 542 542 541 541 542 542 542 542 542 542 542 542 542 542 542 542 542 542 542 542 541 541 541 541 541 541 541 541 542 542 542 542 542 542 543 543 544 544 544 544 545 545 546 546 546 546 546 546 546 546 546 546 546 546 545 545 544 544 544 544 543 543 543 543 543 543 543 543 543 543 543 543 543 543 543 543 543 543 543 543 543 543 543 543 544 544 544 544 544 544 545 545 545 545 545 545 545 545 545 545 545 545 545 545 545 545 546 546 546 546 547 547 547 547 547 547 548 548 548 548 548 548 547 547 547 547 547 547 547 547 547 547 547 547 547 547 547 547 547 547 547 547 547 547 548 548 549 549 549 549 550 550 551 551 552 552 552 552 552 552 551 551 550 550 550 550 550 550 550 550 549 549 549 549 550 550 550 550 550 550 550 550 550 550 550 550 550 550 550 550 550 550 550 550 550 550 552 552 552 552 552 552 552 552 553 553 552 552 552 552 551 551 551 551 551 551 551 551 551 551 551 551 552 552 552 552 552 552 552 552 552 552 552 552 552 552 552 552 552 552 552 552 553 553 553 553 553 553 554 554 554 554 554 554 554 554 554 554 556 556 556 556 557 557 557 557 557 557 558 558 558 558 558 558 558 558 558 558 558 558 559 559 558 558 558 558 558 558 556 556 553 553 551 551 551 551 551 551 551 551 551 551 552 552 554 554 556 556 558 558 561 561 564 564 565 565 565 565 560 560 559 559 559 559 559 559 558 558 558 558 559 559 561 561 564 564 573 573 564 564 564 564
525 525 524 524 522 522 521 521 520 520 519 519 519 519 520 520 521 521 521 521 521 521 522 522 523 523 523 523 523 523 524 524 525 525 525 525 526 526 526 526 526 526 525 525 525 525 525 525 524 524 524 524 524 524 524 524 525 525 525 525 526 526 526 526 525 525 525 525 524 524 524 524 524 524 524 524 523 523 522 522 524 524 525 525 524 524 523 523 522 522 523 523 524 524 525 525 525 525 525 525 526 526 528 528 529 529 528 528 528 528 528 528 528 528 528 528 527 527 527 527 527 527 529 529 530 530 531 531 532 532 532 532 532 532 533 533 533 533 532 532 531 531 530 530 530 530 530 530 531 531 532 532 532 532 533 533 534 534 534 534 535 535 535 535 535 535 535 535 535 535 535 535 535 535 535 535 535 535 536 536 536 536 534 534 534 534 535 535 536 536 536 536 536 536 536 536 537 537 538 538 538 538 538 538 538 538 538 538 538 538 538 538 538 538 538 538 538 538 538 538 538 538 538 538 538 538 538 538 538 538 539 539 538 538 538 538 538 538 538 538 538 538 538 538 538 538 538 538 538 538 539 539 539 539 539 539 540 540 540 540 541 541 541 541 542 542 542 542 543 543 544 544 544 544 544 544 544 544 544 544 544 544 543 543 543 543 542 542 542 542 542 542 542 542 542 542 542 542 542 542 541 541 542 542 542 542 542 542 542 542 542 542 542 542 542 542 542 542 541 541 541 541 541 541 541 541 542 542 542 542 542 542 543 543 544 544 544 544 545 545 546 546 546 546 546 546 546 546 546 546 546 546 545 545 544 544 544 544 543 543 543 543 543 543 543 543 543 543 543 543 543 543 543 543 543 543 543 543 543 543 543 543 544 544 544 544 544 544 545 545 545 545 545 545 545 545 545 545 545 545 545 545 545 545 546 546 546 546 547 547 547 547 547 547 548 548 548 548 548 548 547 547 547 547 547 547 547 547 547 547 547 547 547 547 547 547 547 547 547 547 547 547 548 548 549 549 549 549 550 550 551 551 552 552 552 552 552 552 551 551 550 550 550 550 550 550 550 550 549 549 549 549 550 550 550 550 550 550 550 550 550 550 550 550 550 550 550 550 550 550 550 550 550 550 552 552 552 552 552 552 552 552 553 553 552 552 552 552 551 551 551 551 551 551 551 551 551 551 551 551 552 552 552 552 552 552 552 552 552 552 552 552 552 552 552 552 552 552 552 552 553 553 553 553 553 553 554 554 554 554 554 554 554 554 554 554 556 556 556 556 557 557 557 557 557 557 558 558 558 558 558 558 558 558 558 558 558 558 559 559 558 558 558 558 558 558 556 556 553 553 551 551 551 551 551 551 551 551 551 551 552 552 554 554 556 556 558 558 561 561 564 564 565 565 565 565 560 560 559 559 559 559 559 559 558 558 558 558 559 559 561 561 564 564 573 573 564 564 564 564
521 521 518 518 518 518 518 518 518 518 517 517 517 517 518 518 518 518 518 518 518 518 518 518 520 520 521 521 522 522 522 522 522 522 523 523 524 524 525 525 524 524 524 524 524 524 523 523 523 523 523 523 523 523 523 523 523 523 523 523 523 523 524 524 524 524 523 523 522 522 522 522 522 522 522 522 521 521 521 521 521 521 522 522 521 521 521 521 521 521 521 521 522 522 522 522 522 522 522 522 523 523 524 524 525 525 525 525 525 525 525 525 525 525 525 525 525 525 525 525 525 525 525 525 526 526 526 526 526 526 527 527 527 527 527 527 528 528 528 528 527 527 526 526 526 526 527 527 528 528 528 528 529 529 530 530 530 530 531 531 533 533 533 533 533 533 534 534 534 534 534 534 533 533 532 532 532 532 533 533 533 533 532 532 532 532 533 533 534 534 534 534 534 534 534 534 534 534 535 535 535 535 535 535 535 535 534 534 535 535 536 536 537 537 537 537 537 537 537 537 536 536 536 536 536 536 535 535 535 535 535 535 534 534 534 534 534 534 534 534 534 534 534 534 534 534 534 534 534 534 534 534 534 534 534 534 535 535 535 535 536 536 536 536 537 537 537 537 537 537 537 537 537 537 538 538 538 538 538 538 542 542 542 542 541 541 540 540 539 539 539 539 539 539 539 539 539 539 538 538 538 538 538 538 539 539 539 539 540 540 540 540 541 541 541 541 540 540 539 539 539 539 539 539 540 540 540 540 540 540 540 540 541 541 542 542 542 542 543 543 543 543 544 544 544 544 544 544 543 543 542 542 542 542 542 542 542 542 541 541 541 541 541 541 541 541 540 540 539 539 539 539 539 539 539 539 540 540 540 540 540 540 540 540 540 540 541 541 541 541 542 542 542 542 542 542 542 542 542 542 542 542 542 542 542 542 543 543 543 543 544 544 545 545 546 546 546 546 545 545 545 545 545 545 545 545 545 545 545 545 545 545 545 545 545 545 545 545 545 545 545 545 546 546 546 546 546 546 547 547 548 548 550 550 550 550 549 549 549 549 548 548 547 547 547 547 546 546 547 547 547 547 547 547 547 547 547 547 547 547 548 548 549 549 549 549 548 548 548 548 548 548 548 548 549 549 549 549 549 549 549 549 550 550 549 549 549 549 548 548 548 548 548 548 548 548 548 548 548 548 548 548 547 547 547 547 547 547 546 546 546 546 547 547 547 547 549 549 550 550 550 550 550 550 551 551 552 552 552 552 552 552 552 552 553 553 554 554 554 554 554 554 554 554 555 555 555 555 556 556 556 556 557 557 558 558 557 557 557 557 555 555 555 555 554 554 553 553 549 549 547 547 547 547 548 548 549 549 550 550 550 550 551 551 554 554 555 555 557 557 561 561 562 562 563 563 558 558 557 557 557 557 556 556 555 555 554 554 555 555 555 555 564 564 564 564 561 561 559 559
521 521 518 518 518 518 518 518 518 518 517 517 517 517 518 518 518 518 518 518 518 518 518 518 520 520 521 521 522 522 522 522 522 522 523 523 524 524 525 525 524 524 524 524 524 524 523 523 523 523 523 523 523 523 523 523 523 523 523 523 523 523 524 524 524 524 523 523 522 522 522 522 522 522 522 522 521 521 521 521 521 521 522 522 521 521 521 521 521 521 521 521 522 522 522 522 522 522 522 522 523 523 524 524 525 525 525 525 525 525 525 525 525 525 525 525 525 525 525 525 525 525 525 525 526 526 526 526 526 526 527 527 527 527 527 527 528 528 528 528 527 527 526 526 526 526 527 527 528 528 528 528 529 529 530 530 530 530 531 531 533 533 533 533 533 533 534 534 534 534 534 534 533 533 532 532 532 532 533 533 533 533 532 532 532 532 533 533 534 534 534 534 534 534 534 534 534 534 535 535 535 535 535 535 535 535 534 534 535 535 536 536 537 537 537 537 537 537 537 537 536 536 536 536 536 536 535 535 535 535 535 535 534 534 534 534 534 534 534 534 534 534 534 534 534 534 534 534 534 534 534 534 534 534 534 534 535 535 535 535 536 536 536 536 537 537 537 537 537 537 537 537 537 537 538 538 538 538 538 538 542 542 542 542 541 541 540 540 539 539 539 539 539 539 539 539 539 539 538 538 538 538 538 538 539 539 539 539 540 540 540 540 541 541 541 541 540 540 539 539 539 539 539 539 540 540 540 540 540 540 540 540 541 541 542 542 542 542 543 543 543 543 544 544 544 544 544 544 543 543 542 542 542 542 542 542 542 542 541 541 541 541 541 541 541 541 540 540 539 539 539 539 539 539 539 539 540 540 540 540 540 540 540 540 540 540 541 541 541 541 542 542 542 542 542 542 542 542 542 542 542 542 542 542 542 542 543 543 543 543 544 544 545 545 546 546 546 546 545 545 545 545 545 545 545 545 545 545 545 545 545 545 545 545 545 545 545 545 545 545 545 545 546 546 546 546 546 546 547 547 548 548 550 550 550 550 549 549 549 549 548 548 547 547 547 547 546 546 547 547 547 547 547 547 547 547 547 547 547 547 548 548 549 549 549 549 548 548 548 548 548 548 548 548 549 549 549 549 549 549 549 549 550 550 549 549 549 549 548 548 548 548 548 548 548 548 548 548 548 548 548 548 547 547 547 547 547 547 546 546 546 546 547 547 547 547 549 549 550 550 550 550 550 550 551 551 552 552 552 552 552 552 552 552 553 553 554 554 554 554 554 554 554 554 555 555 555 555 556 556 556 556 557 557 558 558 557 557 557 557 555 555 555 555 554 554 553 553 549 549 547 547 547 547 548 548 549 549 550 550 550 550 551 551 554 554 555 555 557 557 561 561 562 562 563 563 558 558 557 557 557 557 556 556 555 555 554 554 555 555 555 555 564 564 564 564 561 561 559 559
517 517 515 515 515 515 515 515 515 515 514 514 515 515 516 516 516 516 516 516 516 516 516 516 517 517 518 518 518 518 518 518 518 518 519 519 519 519 520 520 520 520 519 519 519 519 519 519 519 519 519 519 518 518 518 518 518 518 519 519 519 519 521 521 521 521 521 521 521 521 520 520 520 520 518 518 518 518 518 518 518 518 518 518 518 518 518 518 518 518 518 518 519 519 519 519 520 520 520 520 519 519 519 519 519 519 522 522 522 522 522 522 522 522 522 522 522 522 522 522 523 523 524 524 524 524 524 524 525 525 526 526 526 526 526 526 526 526 525 525 525 525 525 525 526 526 526 526 526 526 526 526 526 526 526 526 527 527 528 528 529 529 528 528 528 528 529 529 529 529 528 528 527 527 527 527 526 526 526 526 526 526 526 526 527 527 528 528 528 528 529 529 529 529 530 530 532 532 532 532 533 533 533 533 533 533 533 533 534 534 534 534 534 534 534 534 534 534 534 534 534 534 534 534 533 533 532 532 532 532 532 532 531 531 531 531 532 532 532 532 532 532 532 532 532 532 532 532 532 532 532 532 532 532 533 533 533 533 533 533 534 534 534 534 534 534 534 534 534 534 534 534 534 534 534 534 534 534 534 534 533 533 533 533 534 534 534 534 534 534 534 534 534 534 534 534 534 534 534 534 534 534 534 534 534 534 534 534 534 534 535 535 535 535 535 535 536 536 536 536 536 536 536 536 536 536 536 536 536 536 537 537 538 538 539 539 540 540 541 541 542 542 542 542 542 542 542 542 541 541 540 540 540 540 539 539 538 538 538 538 538 538 538 538 538 538 538 538 538 538 538 538 537 537 537 537 537 537 538 538 538 538 538 538 538 538 538 538 539 539 539 539 539 539 539 539 539 539 539 539 540 540 540 540 539 539 540 540 541 541 541 541 541 541 540 540 540 540 541 541 541 541 542 542 542 542 542 542 541 541 541 541 541 541 541 541 541 541 539 539 539 539 539 539 540 540 541 541 542 542 542 542 542 542 542 542 544 544 544 544 543 543 543 543 545 545 545 545 545 545 545 545 545 545 544 544 544 544 544 544 545 545 545 545 545 545 545 545 545 545 545 545 546 546 546 546 546 546 546 546 546 546 546 546 546 546 546 546 545 545 545 545 544 544 545 545 545 545 546 546 546 546 546 546 545 545 545 545 544 544 544 544 545 545 545 545 546 546 547 547 548 548 548 548 549 549 550 550 550 550 550 550 550 550 550 550 550 550 550 550 551 551 551 551 552 552 552 552 553 553 553 553 554 554 554 554 554 554 553 553 553 553 553 553 553 553 549 549 545 545 543 543 542 542 544 544 546 546 547 547 549 549 550 550 552 552 553 553 555 555 556 556 559 559 562 562 555 555 555 555 544 544 544 544 554 554 554 554 553 553 553 553 553 553 556 556 557 557 557 557
517 517 515 515 515 515 515 515 515 515 514 514 515 515 516 516 516 516 516 516 516 516 516 516 517 517 518 518 518 518 518 518 518 518 519 519 519 519 520 520 520 520 519 519 519 519 519 519 519 519 519 519 518 518 518 518 518 518 519 519 519 519 521 521 521 521 521 521 521 521 520 520 520 520 518 518 518 518 518 518 518 518 518 518 518 518 518 518 518 518 518 518 519 519 519 519 520 520 520 520 519 519 519 519 519 519 522 522 522 522 522 522 522 522 522 522 522 522 522 522 523 523 524 524 524 524 524 524 525 525 526 526 526 526 526 526 526 526 525 525 525 525 525 525 526 526 526 526 526 526 526 526 526 526 526 526 527 527 528 528 529 529 528 528 528 528 529 529 529 529 528 528 527 527 527 527 526 526 526 526 526 526 526 526 527 527 528 528 528 528 529 529 529 529 530 530 532 532 532 532 533 533 533 533 533 533 533 533 534 534 534 534 534 534 534 534 534 534 534 534 534 534 534 534 533 533 532 532 532 532 532 532 531 531 531 531 532 532 532 532 532 532 532 532 532 532 532 532 532 532 532 532 532 532 533 533 533 533 533 533 534 534 534 534 534 534 534 534 534 534 534 534 534 534 534 534 534 534 534 534 533 533 533 533 534 534 534 534 534 534 534 534 534 534 534 534 534 534 534 534 534 534 534 534 534 534 534 534 534 534 535 535 535 535 535 535 536 536 536 536 536 536 536 536 536 536 536 536 536 536 537 537 538 538 539 539 540 540 541 541 542 542 542 542 542 542 542 542 541 541 540 540 540 540 539 539 538 538 538 538 538 538 538 538 538 538 538 538 538 538 538 538 537 537 537 537 537 537 538 538 538 538 538 538 538 538 538 538 539 539 539 539 539 539 539 539 539 539 539 539 540 540 540 540 539 539 540 540 541 541 541 541 541 541 540 540 540 540 541 541 541 541 542 542 542 542 542 542 541 541 541 541 541 541 541 541 541 541 539 539 539 539 539 539 540 540 541 541 542 542 542 542 542 542 542 542 544 544 544 544 543 543 543 543 545 545 545 545 545 545 545 545 545 545 544 544 544 544 544 544 545 545 545 545 545 545 545 545 545 545 545 545 546 546 546 546 546 546 546 546 546 546 546 546 546 546 546 546 545 545 545 545 544 544 545 545 545 545 546 546 546 546 546 546 545 545 545 545 544 544 544 544 545 545 545 545 546 546 547 547 548 548 548 548 549 549 550 550 550 550 550 550 550 550 550 550 550 550 550 550 551 551 551 551 552 552 552 552 553 553 553 553 554 554 554 554 554 554 553 553 553 553 553 553 553 553 549 549 545 545 543 543 542 542 544 544 546 546 547 547 549 549 550 550 552 552 553 553 555 555 556 556 559 559 562 562 555 555 555 555 544 544 544 544 554 554 554 554 553 553 553 553 553 553 556 556 557 557 557 557
514 514 514 514 514 514 514 514 512 512 512 512 514 514 514 514 514 514 513 513 513 513 513 513 514 514 515 515 515 515 514 514 516 516 516 516 517 517 518 518 518 518 517 517 517 517 518 518 518 518 518 518 518 518 518 518 518 518 518 518 518 518 518 518 518 518 518 518 518 518 517 517 517 517 516 516 516 516 516 516 515 515 515 515 516 516 517 517 517 517 517 517 517 517 517 517 517 517 517 517 516 516 516 516 515 515 516 516 517 517 518 518 518 518 518 518 518 518 519 519 521 521 522 522 522 522 521 521 521 521 523 523 523 523 523 523 522 522 522 522 522 522 522 522 522 522 522 522 523 523 523 523 524 524 524 524 525 525 526 526 526 526 526 526 526 526 526 526 525 525 525 525 525 525 524 524 524 524 524 524 525 525 525 525 526 526 526 526 526 526 526 526 526 526 526 526 526 526 526 526 526 526 526 526 526 526 526 526 526 526 528 528 528 528 528 528 528 528 528 528 528 528 528 528 527 527 526 526 526 526 528 528 528 528 528 528 528 528 526 526 527 527 527 527 527 527 528 528 529 529 529 529 530 530 530 530 530 530 530 530 530 530 530 530 530 530 530 530 530 530 530 530 530 530 532 532 532 532 532 532 531 531 531 531 531 531 532 532 532 532 532 532 532 532 532 532 532 532 532 532 532 532 532 532 532 532 532 532 532 532 532 532 533 533 534 534 534 534 534 534 534 534 534 534 534 534 534 534 534 534 534 534 534 534 534 534 535 535 535 535 536 536 536 536 536 536 535 535 535 535 536 536 536 536 535 535 535 535 535 535 535 535 535 535 535 535 535 535 535 535 534 534 534 534 534 534 534 534 534 534 534 534 534 534 535 535 536 536 537 537 537 537 538 538 538 538 538 538 538 538 538 538 538 538 537 537 537 537 538 538 538 538 538 538 537 537 536 536 536 536 538 538 538 538 538 538 538 538 538 538 537 537 537 537 536 536 535 535 534 534 534 534 534 534 535 535 535 535 536 536 535 535 535 535 538 538 538 538 538 538 538 538 538 538 538 538 539 539 540 540 540 540 540 540 540 540 541 541 541 541 541 541 542 542 543 543 543 543 542 542 543 543 544 544 545 545 545 545 544 544 543 543 542 542 542 542 542 542 539 539 540 540 540 540 542 542 542 542 543 543 544 544 542 542 542 542 542 542 542 542 542 542 542 542 542 542 543 543 544 544 546 546 546 546 547 547 547 547 548 548 548 548 548 548 547 547 547 547 548 548 548 548 549 549 549 549 549 549 549 549 551 551 552 552 552 552 551 551 550 550 549 549 547 547 544 544 541 541 541 541 538 538 538 538 539 539 542 542 544 544 545 545 545 545 545 545 549 549 550 550 550 550 545 545 543 543 549 549 550 550 544 544 544 544 550 550 550 550 553 553 553 553 551 551 553 553 554 554 554 554
514 514 514 514 514 514 514 514 512 512 512 512 514 514 514 514 514 514 513 513 513 513 513 513 514 514 515 515 515 515 514 514 516 516 516 516 517 517 518 518 518 518 517 517 517 517 518 518 518 518 518 518 518 518 518 518 518 518 518 518 518 518 518 518 518 518 518 518 518 518 517 517 517 517 516 516 516 516 516 516 515 515 515 515 516 516 517 517 517 517 517 517 517 517 517 517 517 517 517 517 516 516 516 516 515 515 516 516 517 517 518 518 518 518 518 518 518 518 519 519 521 521 522 522 522 522 521 521 521 521 523 523 523 523 523 523 522 522 522 522 522 522 522 522 522 522 522 522 523 523 523 523 524 524 524 524 525 525 526 526 526 526 526 526 526 526 526 526 525 525 525 525 525 525 524 524 524 524 524 524 525 525 525 525 526 526 526 526 526 526 526 526 526 526 526 526 526 526 526 526 526 526 526 526 526 526 526 526 526 526 528 528 528 528 528 528 528 528 528 528 528 528 528 528 527 527 526 526 526 526 528 528 528 528 528 528 528 528 526 526 527 527 527 527 527 527 528 528 529 529 529 529 530 530 530 530 530 530 530 530 530 530 530 530 530 530 530 530 530 530 530 530 530 530 532 532 532 532 532 532 531 531 531 531 531 531 532 532 532 532 532 532 532 532 532 532 532 532 532 532 532 532 532 532 532 532 532 532 532 532 532 532 533 533 534 534 534 534 534 534 534 534 534 534 534 534 534 534 534 534 534 534 534 534 534 534 535 535 535 535 536 536 536 536 536 536 535 535 535 535 536 536 536 536 535 535 535 535 535 535 535 535 535 535 535 535 535 535 535 535 534 534 534 534 534 534 534 534 534 534 534 534 534 534 535 535 536 536 537 537 537 537 538 538 538 538 538 538 538 538 538 538 538 538 537 537 537 537 538 538 538 538 538 538 537 537 536 536 536 536 538 538 538 538 538 538 538 538 538 538 537 537 537 537 536 536 535 535 534 534 534 534 534 534 535 535 535 535 536 536 535 535 535 535 538 538 538 538 538 538 538 538 538 538 538 538 539 539 540 540 540 540 540 540 540 540 541 541 541 541 541 541 542 542 543 543 543 543 542 542 543 543 544 544 545 545 545 545 544 544 543 543 542 542 542 542 542 542 539 539 540 540 540 540 542 542 542 542 543 543 544 544 542 542 542 542 542 542 542 542 542 542 542 542 542 542 543 543 544 544 546 546 546 546 547 547 547 547 548 548 548 548 548 548 547 547 547 547 548 548 548 548 549 549 549 549 549 549 549 549 551 551 552 552 552 552 551 551 550 550 549 549 547 547 544 544 541 541 541 541 538 538 538 538 539 539 542 542 544 544 545 545 545 545 545 545 549 549 550 550 550 550 545 545 543 543 549 549 550 550 544 544 544 544 550 550 550 550 553 553 553 553 551 551 553 553 554 554 554 554
510 510 510 510 510 510 509 509 509 509 509 509 509 509 510 510 510 510 509 509 509 509 510 510 510 510 511 511 510 510 510 510 511 511 514 514 514 514 515 515 515 515 514 514 514 514 516 516 516 516 516 516 515 515 514 514 514 514 514 514 514 514 514 514 514 514 514 514 515 515 516 516 515 515 515 515 515 515 514 514 514 514 514 514 514 514 514 514 515 515 516 516 516 516 516 516 516 516 515 515 515 515 514 514 514 514 514 514 514 514 514 514 515 515 515 515 515 515 516 516 517 517 518 518 517 517 516 516 516 516 517 517 518 518 518 518 517 517 516 516 516 516 517 517 518 518 518 518 519 519 519 519 520 520 521 521 521 521 521 521 522 522 523 523 523 523 523 523 523 523 523 523 523 523 523 523 522 522 522 522 523 523 524 524 524 524 524 524 524 524 524 524 525 525 525 525 525 525 524 524 524 524 524 524 524 524 524 524 524 524 525 525 525 525 525 525 525 525 525 525 526 526 525 525 524 524 524 524 524 524 525 525 525 525 525 525 525 525 524 524 525 525 525 525 525 525 525 525 525 525 525 525 525 525 526 526 526 526 525 525 525 525 525 525 525 525 525 525 525 525 525 525 525 525 526 526 526 526 526 526 526 526 526 526 526 526 526 526 527 527 527 527 526 526 527 527 530 530 530 530 528 528 528 528 529 529 529 529 530 530 530 530 532 532 532 532 533 533 532 532 531 531 531 531 531 531 531 531 531 531 531 531 532 532 532 532 533 533 533 533 533 533 533 533 532 532 532 532 532 532 533 533 533 533 534 534 534 534 534 534 534 534 534 534 534 534 534 534 534 534 533 533 532 532 532 532 532 532 532 532 532 532 532 532 533 533 534 534 534 534 535 535 535 535 535 535 534 534 534 534 534 534 534 534 534 534 534 534 533 533 533 533 532 532 532 532 531 531 531 531 532 532 533 533 533 533 533 533 533 533 533 533 534 534 534 534 533 533 532 532 532 532 532 532 532 532 532 532 532 532 532 532 532 532 533 533 533 533 534 534 534 534 534 534 534 534 535 535 535 535 534 534 535 535 535 535 537 537 537 537 537 537 538 538 540 540 540 540 541 541 541 541 541 541 542 542 542 542 541 541 539 539 537 537 536 536 536 536 534 534 535 535 536 536 537 537 538 538 539 539 539 539 538 538 538 538 538 538 537 537 537 537 537 537 537 537 538 538 539 539 539 539 539 539 543 543 543 543 544 544 544 544 544 544 544 544 544 544 544 544 544 544 545 545 546 546 546 546 546 546 547 547 549 549 549 549 549 549 546 546 544 544 542 542 539 539 537 537 537 537 536 536 535 535 535 535 538 538 542 542 542 542 542 542 543 543 543 543 543 543 543 543 542 542 542 542 542 542 542 542 543 543 542 542 542 542 545 545 546 546 549 549 549 549 550 550 553 553 553 553
510 510 510 510 510 510 509 509 509 509 509 509 509 509 510 510 510 510 509 509 509 509 510 510 510 510 511 511 510 510 510 510 511 511 514 514 514 514 515 515 515 515 514 514 514 514 516 516 516 516 516 516 515 515 514 514 514 514 514 514 514 514 514 514 514 514 514 514 515 515 516 516 515 515 515 515 515 515 514 514 514 514 514 514 514 514 514 514 515 515 516 516 516 516 516 516 516 516 515 515 515 515 514 514 514 514 514 514 514 514 514 514 515 515 515 515 515 515 516 516 517 517 518 518 517 517 516 516 516 516 517 517 518 518 518 518 517 517 516 516 516 516 517 517 518 518 518 518 519 519 519 519 520 520 521 521 521 521 521 521 522 522 523 523 523 523 523 523 523 523 523 523 523 523 523 523 522 522 522 522 523 523 524 524 524 524 524 524 524 524 524 524 525 525 525 525 525 525 524 524 524 524 524 524 524 524 524 524 524 524 525 525 525 525 525 525 525 525 525 525 526 526 525 525 524 524 524 524 524 524 525 525 525 525 525 525 525 525 524 524 525 525 525 525 525 525 525 525 525 525 525 525 525 525 526 526 526 526 525 525 525 525 525 525 525 525 525 525 525 525 525 525 525 525 526 526 526 526 526 526 526 526 526 526 526 526 526 526 527 527 527 527 526 526 527 527 530 530 530 530 528 528 528 528 529 529 529 529 530 530 530 530 532 532 532 532 533 533 532 532 531 531 531 531 531 531 531 531 531 531 531 531 532 532 532 532 533 533 533 533 533 533 533 533 532 532 532 532 532 532 533 533 533 533 534 534 534 534 534 534 534 534 534 534 534 534 534 534 534 534 533 533 532 532 532 532 532 532 532 532 532 532 532 532 533 533 534 534 534 534 535 535 535 535 535 535 534 534 534 534 534 534 534 534 534 534 534 534 533 533 533 533 532 532 532 532 531 531 531 531 532 532 533 533 533 533 533 533 533 533 533 533 534 534 534 534 533 533 532 532 532 532 532 532 532 532 532 532 532 532 532 532 532 532 533 533 533 533 534 534 534 534 534 534 534 534 535 535 535 535 534 534 535 535 535 535 537 537 537 537 537 537 538 538 540 540 540 540 541 541 541 541 541 541 542 542 542 542 541 541 539 539 537 537 536 536 536 536 534 534 535 535 536 536 537 537 538 538 539 539 539 539 538 538 538 538 538 538 537 537 537 537 537 537 537 537 538 538 539 539 539 539 539 539 543 543 543 543 544 544 544 544 544 544 544 544 544 544 544 544 544 544 545 545 546 546 546 546 546 546 547 547 549 549 549 549 549 549 546 546 544 544 542 542 539 539 537 537 537 537 536 536 535 535 535 535 538 538 542 542 542 542 542 542 543 543 543 543 543 543 543 543 542 542 542 542 542 542 542 542 543 543 542 542 542 542 545 545 546 546 549 549 549 549 550 550 553 553 553 553
509 509 509 509 509 509 507 507 507 507 506 506 507 507 507 507 506 506 506 506 506 506 507 507 507 507 507 507 507 507 507 507 508 508 508 508 509 509 509 509 509 509 509 509 509 509 509 509 510 510 510 510 510 510 509 509 507 507 507 507 507 507 509 509 510 510 510 510 510 510 511 511 511 511 511 511 512 512 512 512 511 511 511 511 511 511 512 512 513 513 514 514 514 514 514 514 514 514 514 514 514 514 513 513 512 512 512 512 512 512 513 513 513 513 513 513 513 513 514 514 514 514 515 515 514 514 514 514 514 514 514 514 515 515 515 515 515 515 514 514 514 514 515 515 516 516 516 516 517 517 517 517 517 517 518 518 518 518 518 518 518 518 519 519 519 519 518 518 518 518 518 518 518 518 518 518 518 518 518 518 518 518 518 518 518 518 518 518 518 518 518 518 518 518 518 518 519 519 519 519 520 520 520 520 520 520 520 520 520 520 520 520 522 522 522 522 522 522 522 522 522 522 522 522 520 520 520 520 521 521 521 521 522 522 522 522 522 522 522 522 522 522 522 522 522 522 522 522 522 522 522 522 523 523 523 523 523 523 522 522 522 522 523 523 524 524 524 524 523 523 523 523 524 524 525 525 524 524 523 523 523 523 523 523 523 523 525 525 525 525 525 525 525 525 525 525 526 526 526 526 524 524 523 523 523 523 523 523 523 523 524 524 525 525 526 526 526 526 526 526 526 526 526 526 526 526 525 525 525 525 526 526 526 526 527 527 527 527 528 528 528 528 528 528 527 527 527 527 527 527 528 528 529 529 529 529 528 528 528 528 529 529 529 529 530 530 530 530 530 530 530 530 530 530 530 530 530 530 529 529 530 530 530 530 530 530 530 530 532 532 533 533 533 533 533 533 533 533 533 533 533 533 532 532 531 531 531 531 531 531 530 530 529 529 529 529 529 529 529 529 530 530 530 530 530 530 530 530 530 530 530 530 530 530 529 529 529 529 529 529 529 529 529 529 529 529 530 530 530 530 530 530 530 530 530 530 531 531 531 531 532 532 532 532 532 532 532 532 532 532 532 532 532 532 532 532 533 533 533 533 532 532 534 534 535 535 536 536 537 537 537 537 537 537 537 537 537 537 536 536 534 534 534 534 533 533 532 532 532 532 532 532 533 533 534 534 534 534 535 535 536 536 535 535 535 535 536 536 536 536 535 535 535 535 535 535 536 536 537 537 537 537 536 536 537 537 537 537 537 537 537 537 538 538 538 538 540 540 542 542 541 541 542 542 542 542 542 542 542 542 544 544 544 544 543 543 543 543 542 542 539 539 538 538 537 537 535 535 535 535 534 534 534 534 534 534 534 534 537 537 538 538 539 539 539 539 539 539 539 539 539 539 538 538 538 538 540 540 541 541 542 542 542 542 542 542 543 543 545 545 546 546 547 547 547 547 550 550 550 550
509 509 509 509 509 509 507 507 507 507 506 506 507 507 507 507 506 506 506 506 506 506 507 507 507 507 507 507 507 507 507 507 508 508 508 508 509 509 509 509 509 509 509 509 509 509 509 509 510 510 510 510 510 510 509 509 507 507 507 507 507 507 509 509 510 510 510 510 510 510 511 511 511 511 511 511 512 512 512 512 511 511 511 511 511 511 512 512 513 513 514 514 514 514 514 514 514 514 514 514 514 514 513 513 512 512 512 512 512 512 513 513 513 513 513 513 513 513 514 514 514 514 515 515 514 514 514 514 514 514 514 514 515 515 515 515 515 515 514 514 514 514 515 515 516 516 516 516 517 517 517 517 517 517 518 518 518 518 518 518 518 518 519 519 519 519 518 518 518 518 518 518 518 518 518 518 518 518 518 518 518 518 518 518 518 518 518 518 518 518 518 518 518 518 518 518 519 519 519 519 520 520 520 520 520 520 520 520 520 520 520 520 522 522 522 522 522 522 522 522 522 522 522 522 520 520 520 520 521 521 521 521 522 522 522 522 522 522 522 522 522 522 522 522 522 522 522 522 522 522 522 522 523 523 523 523 523 523 522 522 522 522 523 523 524 524 524 524 523 523 523 523 524 524 525 525 524 524 523 523 523 523 523 523 523 523 525 525 525 525 525 525 525 525 525 525 526 526 526 526 524 524 523 523 523 523 523 523 523 523 524 524 525 525 526 526 526 526 526 526 526 526 526 526 526 526 525 525 525 525 526 526 526 526 527 527 527 527 528 528 528 528 528 528 527 527 527 527 527 527 528 528 529 529 529 529 528 528 528 528 529 529 529 529 530 530 530 530 530 530 530 530 530 530 530 530 530 530 529 529 530 530 530 530 530 530 530 530 532 532 533 533 533 533 533 533 533 533 533 533 533 533 532 532 531 531 531 531 531 531 530 530 529 529 529 529 529 529 529 529 530 530 530 530 530 530 530 530 530 530 530 530 530 530 529 529 529 529 529 529 529 529 529 529 529 529 530 530 530 530 530 530 530 530 530 530 531 531 531 531 532 532 532 532 532 532 532 532 532 532 532 532 532 532 532 532 533 533 533 533 532 532 534 534 535 535 536 536 537 537 537 537 537 537 537 537 537 537 536 536 534 534 534 534 533 533 532 532 532 532 532 532 533 533 534 534 534 534 535 535 536 536 535 535 535 535 536 536 536 536 535 535 535 535 535 535 536 536 537 537 537 537 536 536 537 537 537 537 537 537 537 537 538 538 538 538 540 540 542 542 541 541 542 542 542 542 542 542 542 542 544 544 544 544 543 543 543 543 542 542 539 539 538 538 537 537 535 535 535 535 534 534 534 534 534 534 534 534 537 537 538 538 539 539 539 539 539 539 539 539 539 539 538 538 538 538 540 540 541 541 542 542 542 542 542 542 543 543 545 545 546 546 547 547 547 547 550 550 550 550
507 507 508 508 506 506 506 506 505 505 505 505 504 504 503 503 503 503 503 503 504 504 504 504 504 504 505 505 505 505 506 506 506 506 506 506 507 507 507 507 507 507 506 506 506 506 506 506 506 506 506 506 507 507 506 506 506 506 506 506 507 507 507 507 508 508 509 509 509 509 509 509 510 510 510 510 510 510 510 510 509 509 508 508 508 508 509 509 510 510 510 510 510 510 510 510 510 510 511 511 511 511 511 511 510 510 510 510 510 510 510 510 510 510 510 510 509 509 509 509 510 510 510 510 510 510 510 510 512 512 512 512 512 512 513 513 513 513 513 513 513 513 514 514 514 514 514 514 514 514 514 514 515 515 515 515 515 515 515 515 516 516 517 517 517 517 517 517 516 516 516 516 517 517 517 517 517 517 516 516 515 515 515 515 515 515 515 515 514 514 515 515 515 515 515 515 516 516 516 516 517 517 518 518 518 518 517 517 517 517 517 517 517 517 518 518 518 518 518 518 518 518 518 518 517 517 517 517 517 517 517 517 517 517 517 517 517 517 518 518 518 518 518 518 518 518 518 518 518 518 518 518 518 518 518 518 518 518 518 518 518 518 522 522 522 522 522 522 522 522 522 522 522 522 523 523 522 522 521 521 521 521 521 521 521 521 522 522 522 522 522 522 522 522 522 522 523 523 522 522 521 521 520 520 518 518 519 519 519 519 521 521 522 522 522 522 522 522 523 523 523 523 523 523 523 523 522 522 522 522 523 523 524 524 525 525 525 525 525 525 525 525 526 526 526 526 525 525 524 524 524 524 524 524 524 524 523 523 523 523 523 523 522 522 522 522 523 523 523 523 525 525 525 525 525 525 526 526 526 526 526 526 526 526 526 526 526 526 526 526 526 526 526 526 527 527 528 528 530 530 530 530 529 529 529 529 529 529 529 529 528 528 527 527 526 526 526 526 526 526 526 526 526 526 526 526 526 526 526 526 526 526 527 527 527 527 527 527 527 527 527 527 527 527 527 527 527 527 528 528 528 528 529 529 529 529 530 530 530 530 530 530 530 530 530 530 530 530 530 530 530 530 530 530 530 530 530 530 530 530 530 530 530 530 530 530 532 532 532 532 532 532 533 533 533 533 533 533 532 532 531 531 531 531 530 530 529 529 529 529 529 529 529 529 529 529 530 530 531 531 532 532 532 532 532 532 532 532 534 534 534 534 534 534 534 534 534 534 534 534 534 534 533 533 532 532 532 532 531 531 530 530 530 530 530 530 532 532 534 534 536 536 536 536 538 538 538 538 538 538 541 541 541 541 538 538 536 536 536 536 535 535 534 534 534 534 533 533 533 533 533 533 531 531 531 531 532 532 533 533 534 534 535 535 535 535 535 535 535 535 535 535 535 535 536 536 538 538 538 538 539 539 540 540 541 541 541 541 543 543 544 544 545 545 546 546 546 546 546 546
507 507 508 508 506 506 506 506 505 505 505 505 504 504 503 503 503 503 503 503 504 504 504 504 504 504 505 505 505 505 506 506 506 506 506 506 507 507 507 507 507 507 506 506 506 506 506 506 506 506 506 506 507 507 506 506 506 506 506 506 507 507 507 507 508 508 509 509 509 509 509 509 510 510 510 510 510 510 510 510 509 509 508 508 508 508 509 509 510 510 510 510 510 510 510 510 510 510 511 511 511 511 511 511 510 510 510 510 510 510 510 510 510 510 510 510 509 509 509 509 510 510 510 510 510 510 510 510 512 512 512 512 512 512 513 513 513 513 513 513 513 513 514 514 514 514 514 514 514 514 514 514 515 515 515 515 515 515 515 515 516 516 517 517 517 517 517 517 516 516 516 516 517 517 517 517 517 517 516 516 515 515 515 515 515 515 515 515 514 514 515 515 515 515 515 515 516 516 516 516 517 517 518 518 518 518 517 517 517 517 517 517 517 517 518 518 518 518 518 518 518 518 518 518 517 517 517 517 517 517 517 517 517 517 517 517 517 517 518 518 518 518 518 518 518 518 518 518 518 518 518 518 518 518 518 518 518 518 518 518 518 518 522 522 522 522 522 522 522 522 522 522 522 522 523 523 522 522 521 521 521 521 521 521 521 521 522 522 522 522 522 522 522 522 522 522 523 523 522 522 521 521 520 520 518 518 519 519 519 519 521 521 522 522 522 522 522 522 523 523 523 523 523 523 523 523 522 522 522 522 523 523 524 524 525 525 525 525 525 525 525 525 526 526 526 526 525 525 524 524 524 524 524 524 524 524 523 523 523 523 523 523 522 522 522 522 523 523 523 523 525 525 525 525 525 525 526 526 526 526 526 526 526 526 526 526 526 526 526 526 526 526 526 526 527 527 528 528 530 530 530 530 529 529 529 529 529 529 529 529 528 528 527 527 526 526 526 526 526 526 526 526 526 526 526 526 526 526 526 526 526 526 527 527 527 527 527 527 527 527 527 527 527 527 527 527 527 527 528 528 528 528 529 529 529 529 530 530 530 530 530 530 530 530 530 530 530 530 530 530 530 530 530 530 530 530 530 530 530 530 530 530 530 530 530 530 532 532 532 532 532 532 533 533 533 533 533 533 532 532 531 531 531 531 530 530 529 529 529 529 529 529 529 529 529 529 530 530 531 531 532 532 532 532 532 532 532 532 534 534 534 534 534 534 534 534 534 534 534 534 534 534 533 533 532 532 532 532 531 531 530 530 530 530 530 530 532 532 534 534 536 536 536 536 538 538 538 538 538 538 541 541 541 541 538 538 536 536 536 536 535 535 534 534 534 534 533 533 533 533 533 533 531 531 531 531 532 532 533 533 534 534 535 535 535 535 535 535 535 535 535 535 535 535 536 536 538 538 538 538 539 539 540 540 541 541 541 541 543 543 544 544 545 545 546 546 546 546 546 546
503 503 502 502 502 502 501 501 501 501 501 501 501 501 501 501 502 502 502 502 502 502 502 502 502 502 502 502 502 502 502 502 502 502 502 502 503 503 503 503 504 504 504 504 504 504 504 504 504 504 504 504 505 505 505 505 505 505 505 505 506 506 506 506 506 506 507 507 506 506 507 507 509 509 509 509 509 509 509 509 508 508 507 507 507 507 507 507 508 508 508 508 509 509 509 509 509 509 509 509 510 510 510 510 509 509 509 509 509 509 508 508 508 508 508 508 507 507 506 506 507 507 507 507 507 507 507 507 507 507 507 507 508 508 509 509 509 509 509 509 510 510 510 510 510 510 511 511 511 511 511 511 510 510 510 510 509 509 509 509 508 508 508 508 507 507 507 507 509 509 510 510 510 510 510 510 512 512 513 513 513 513 513 513 513 513 513 513 513 513 513 513 514 514 514 514 514 514 514 514 514 514 515 515 515 515 515 515 515 515 514 514 514 514 515 515 515 515 515 515 515 515 515 515 515 515 516 516 516 516 515 515 515 515 515 515 515 515 516 516 516 516 515 515 515 515 515 515 515 515 515 515 515 515 515 515 515 515 515 515 516 516 517 517 518 518 518 518 518 518 518 518 518 518 518 518 518 518 517 517 517 517 517 517 517 517 517 517 517 517 517 517 517 517 517 517 517 517 517 517 517 517 517 517 516 516 516 516 517 517 518 518 518 518 519 519 519 519 519 519 519 519 519 519 519 519 519 519 518 518 519 519 521 521 522 522 522 522 522 522 522 522 522 522 523 523 523 523 522 522 522 522 522 522 522 522 522 522 522 522 521 521 521 521 521 521 521 521 521 521 522 522 522 522 522 522 522 522 522 522 522 522 523 523 523 523 524 524 524 524 524 524 524 524 525 525 525 525 525 525 525 525 525 525 525 525 526 526 525 525 524 524 523 523 523 523 523 523 523 523 523 523 522 522 523 523 524 524 524 524 524 524 524 524 524 524 524 524 524 524 524 524 524 524 524 524 525 525 525 525 526 526 527 527 527 527 527 527 528 528 528 528 528 528 528 528 528 528 528 528 527 527 527 527 527 527 527 527 527 527 527 527 527 527 528 528 529 529 529 529 529 529 530 530 530 530 530 530 530 530 529 529 528 528 526 526 526 526 526 526 526 526 526 526 526 526 526 526 527 527 528 528 528 528 528 528 529 529 530 530 531 531 530 530 530 530 530 530 530 530 530 530 529 529 528 528 527 527 526 526 526 526 526 526 526 526 527 527 528 528 530 530 532 532 533 533 533 533 534 534 534 534 534 534 534 534 534 534 534 534 534 534 532 532 531 531 531 531 530 530 530 530 528 528 527 527 529 529 531 531 532 532 533 533 533 533 533 533 533 533 533 533 534 534 534 534 534 534 535 535 536 536 538 538 538 538 538 538 541 541 543 543 544 544 544 544 546 546 545 545
503 503 502 502 502 502 501 501 501 501 501 501 501 501 501 501 502 502 502 502 502 502 502 502 502 502 502 502 502 502 502 502 502 502 502 502 503 503 503 503 504 504 504 504 504 504 504 504 504 504 504 504 505 505 505 505 505 505 505 505 506 506 506 506 506 506 507 507 506 506 507 507 509 509 509 509 509 509 509 509 508 508 507 507 507 507 507 507 508 508 508 508 509 509 509 509 509 509 509 509 510 510 510 510 509 509 509 509 509 509 508 508 508 508 508 508 507 507 506 506 507 507 507 507 507 507 507 507 507 507 507 507 508 508 509 509 509 509 509 509 510 510 510 510 510 510 511 511 511 511 511 511 510 510 510 510 509 509 509 509 508 508 508 508 507 507 507 507 509 509 510 510 510 510 510 510 512 512 513 513 513 513 513 513 513 513 513 513 513 513 513 513 514 514 514 514 514 514 514 514 514 514 515 515 515 515 515 515 515 515 514 514 514 514 515 515 515 515 515 515 515 515 515 515 515 515 516 516 516 516 515 515 515 515 515 515 515 515 516 516 516 516 515 515 515 515 515 515 515 515 515 515 515 515 515 515 515 515 515 515 516 516 517 517 518 518 518 518 518 518 518 518 518 518 518 518 518 518 517 517 517 517 517 517 517 517 517 517 517 517 517 517 517 517 517 517 517 517 517 517 517 517 517 517 516 516 516 516 517 517 518 518 518 518 519 519 519 519 519 519 519 519 519 519 519 519 519 519 518 518 519 519 521 521 522 522 522 522 522 522 522 522 522 522 523 523 523 523 522 522 522 522 522 522 522 522 522 522 522 522 521 521 521 521 521 521 521 521 521 521 522 522 522 522 522 522 522 522 522 522 522 522 523 523 523 523 524 524 524 524 524 524 524 524 525 525 525 525 525 525 525 525 525 525 525 525 526 526 525 525 524 524 523 523 523 523 523 523 523 523 523 523 522 522 523 523 524 524 524 524 524 524 524 524 524 524 524 524 524 524 524 524 524 524 524 524 525 525 525 525 526 526 527 527 527 527 527 527 528 528 528 528 528 528 528 528 528 528 528 528 527 527 527 527 527 527 527 527 527 527 527 527 527 527 528 528 529 529 529 529 529 529 530 530 530 530 530 530 530 530 529 529 528 528 526 526 526 526 526 526 526 526 526 526 526 526 526 526 527 527 528 528 528 528 528 528 529 529 530 530 531 531 530 530 530 530 530 530 530 530 530 530 529 529 528 528 527 527 526 526 526 526 526 526 526 526 527 527 528 528 530 530 532 532 533 533 533 533 534 534 534 534 534 534 534 534 534 534 534 534 534 534 532 532 531 531 531 531 530 530 530 530 528 528 527 527 529 529 531 531 532 532 533 533 533 533 533 533 533 533 533 533 534 534 534 534 534 534 535 535 536 536 538 538 538 538 538 538 541 541 543 543 544 544 544 544 546 546 545 545
500 500 499 499 499 499 499 499 499 499 499 499 499 499 498 498 498 498 499 499 499 499 499 499 499 499 499 499 500 500 500 500 500 500 500 500 500 500 501 501 501 501 500 500 499 499 500 500 501 501 501 501 501 501 501 501 501 501 502 502 503 503 503 503 504 504 506 506 505 505 506 506 506 506 507 507 507 507 506 506 506 506 505 505 505 505 505 505 505 505 505 505 506 506 507 507 507 507 508 508 508 508 508 508 508 508 507 507 507 507 506 506 506 506 506 506 506 506 506 506 505 505 505 505 506 506 506 506 506 506 505 505 505 505 506 506 507 507 508 508 508 508 508 508 509 509 509 509 509 509 508 508 507 507 506 506 506 506 506 506 506 506 506 506 506 506 506 506 507 507 507 507 507 507 508 508 508 508 508 508 509 509 509 509 509 509 509 509 509 509 509 509 509 509 509 509 509 509 509 509 509 509 509 509 510 510 510 510 510 510 509 509 510 510 510 510 511 511 511 511 511 511 511 511 511 511 512 512 513 513 513 513 512 512 512 512 512 512 513 513 513 513 512 512 512 512 512 512 512 512 513 513 513 513 513 513 512 512 513 513 514 514 515 515 515 515 515 515 514 514 515 515 515 515 515 515 514 514 514 514 514 514 514 514 514 514 514 514 514 514 515 515 515 515 515 515 514 514 515 515 515 515 515 515 515 515 515 515 515 515 516 516 516 516 516 516 516 516 516 516 516 516 516 516 516 516 516 516 516 516 516 516 516 516 517 517 517 517 517 517 517 517 517 517 518 518 518 518 518 518 518 518 518 518 518 518 518 518 518 518 518 518 518 518 518 518 518 518 518 518 518 518 518 518 519 519 519 519 520 520 520 520 521 521 521 521 520 520 520 520 521 521 521 521 522 522 522 522 522 522 521 521 521 521 522 522 522 522 522 522 520 520 520 520 520 520 522 522 522 522 522 522 522 522 522 522 522 522 522 522 522 522 522 522 522 522 522 522 522 522 523 523 523 523 523 523 523 523 523 523 524 524 525 525 525 525 525 525 525 525 526 526 526 526 526 526 526 526 526 526 526 526 525 525 525 525 525 525 525 525 524 524 523 523 523 523 524 524 524 524 525 525 525 525 525 525 526 526 526 526 526 526 526 526 525 525 525 525 525 525 525 525 523 523 523 523 524 524 524 524 525 525 525 525 525 525 526 526 526 526 527 527 527 527 527 527 527 527 528 528 528 528 526 526 526 526 526 526 525 525 525 525 525 525 526 526 526 526 526 526 526 526 528 528 530 530 531 531 531 531 531 531 532 532 532 532 532 532 531 531 531 531 530 530 529 529 529 529 528 528 527 527 526 526 526 526 526 526 528 528 530 530 532 532 532 532 531 531 531 531 532 532 532 532 532 532 532 532 532 532 533 533 534 534 534 534 532 532 532 532 535 535 535 535 534 534 534 534 534 534
500 500 499 499 499 499 499 499 499 499 499 499 499 499 498 498 498 498 499 499 499 499 499 499 499 499 499 499 500 500 500 500 500 500 500 500 500 500 501 501 501 501 500 500 499 499 500 500 501 501 501 501 501 501 501 501 501 501 502 502 503 503 503 503 504 504 506 506 505 505 506 506 506 506 507 507 507 507 506 506 506 506 505 505 505 505 505 505 505 505 505 505 506 506 507 507 507 507 508 508 508 508 508 508 508 508 507 507 507 507 506 506 506 506 506 506 506 506 506 506 505 505 505 505 506 506 506 506 506 506 505 505 505 505 506 506 507 507 508 508 508 508 508 508 509 509 509 509 509 509 508 508 507 507 506 506 506 506 506 506 506 506 506 506 506 506 506 506 507 507 507 507 507 507 508 508 508 508 508 508 509 509 509 509 509 509 509 509 509 509 509 509 509 509 509 509 509 509 509 509 509 509 509 509 510 510 510 510 510 510 509 509 510 510 510 510 511 511 511 511 511 511 511 511 511 511 512 512 513 513 513 513 512 512 512 512 512 512 513 513 513 513 512 512 512 512 512 512 512 512 513 513 513 513 513 513 512 512 513 513 514 514 515 515 515 515 515 515 514 514 515 515 515 515 515 515 514 514 514 514 514 514 514 514 514 514 514 514 514 514 515 515 515 515 515 515 514 514 515 515 515 515 515 515 515 515 515 515 515 515 516 516 516 516 516 516 516 516 516 516 516 516 516 516 516 516 516 516 516 516 516 516 516 516 517 517 517 517 517 517 517 517 517 517 518 518 518 518 518 518 518 518 518 518 518 518 518 518 518 518 518 518 518 518 518 518 518 518 518 518 518 518 518 518 519 519 519 519 520 520 520 520 521 521 521 521 520 520 520 520 521 521 521 521 522 522 522 522 522 522 521 521 521 521 522 522 522 522 522 522 520 520 520 520 520 520 522 522 522 522 522 522 522 522 522 522 522 522 522 522 522 522 522 522 522 522 522 522 522 522 523 523 523 523 523 523 523 523 523 523 524 524 525 525 525 525 525 525 525 525 526 526 526 526 526 526 526 526 526 526 526 526 525 525 525 525 525 525 525 525 524 524 523 523 523 523 524 524 524 524 525 525 525 525 525 525 526 526 526 526 526 526 526 526 525 525 525 525 525 525 525 525 523 523 523 523 524 524 524 524 525 525 525 525 525 525 526 526 526 526 527 527 527 527 527 527 527 527 528 528 528 528 526 526 526 526 526 526 525 525 525 525 525 525 526 526 526 526 526 526 526 526 528 528 530 530 531 531 531 531 531 531 532 532 532 532 532 532 531 531 531 531 530 530 529 529 529 529 528 528 527 527 526 526 526 526 526 526 528 528 530 530 532 532 532 532 531 531 531 531 532 532 532 532 532 532 532 532 532 532 533 533 534 534 534 534 532 532 532 532 535 535 535 535 534 534 534 534 534 534
497 497 497 497 496 496 497 497 497 497 497 497 496 496 494 494 494 494 495 495 496 496 496 496 497 497 497 497 498 498 498 498 498 498 498 498 498 498 499 499 498 498 498 498 498 498 498 498 499 499 499 499 499 499 499 499 499 499 500 500 501 501 502 502 503 503 504 504 504 504 504 504 505 505 506 506 506 506 504 504 503 503 502 502 502 502 502 502 502 502 502 502 502 502 502 502 503 503 506 506 506 506 506 506 504 504 504 504 502 502 501 501 500 500 500 500 499 499 500 500 500 500 500 500 500 500 501 501 502 502 502 502 501 501 501 501 502 502 503 503 504 504 506 506 506 506 506 506 506 506 506 506 505 505 504 504 504 504 504 504 504 504 504 504 504 504 504 504 505 505 505 505 505 505 506 506 506 506 506 506 506 506 506 506 506 506 506 506 507 507 507 507 507 507 507 507 506 506 507 507 507 507 507 507 507 507 507 507 507 507 507 507 508 508 509 509 509 509 509 509 509 509 510 510 510 510 510 510 510 510 509 509 509 509 509 509 509 509 509 509 509 509 509 509 509 509 509 509 509 509 509 509 509 509 509 509 509 509 508 508 508 508 510 510 510 510 510 510 510 510 510 510 510 510 510 510 510 510 510 510 510 510 510 510 510 510 510 510 510 510 511 511 512 512 512 512 511 511 512 512 513 513 513 513 512 512 512 512 513 513 514 514 514 514 514 514 514 514 514 514 514 514 514 514 514 514 514 514 514 514 514 514 514 514 514 514 515 515 515 515 515 515 515 515 515 515 516 516 517 517 516 516 516 516 516 516 517 517 516 516 516 516 515 515 515 515 515 515 514 514 514 514 514 514 514 514 514 514 514 514 514 514 515 515 515 515 515 515 515 515 515 515 515 515 515 515 515 515 515 515 515 515 515 515 515 515 515 515 515 515 516 516 516 516 516 516 518 518 518 518 518 518 518 518 519 519 519 519 520 520 521 521 520 520 520 520 520 520 521 521 521 521 521 521 521 521 521 521 521 521 522 522 522 522 522 522 522 522 523 523 523 523 523 523 525 525 525 525 524 524 524 524 523 523 522 522 522 522 522 522 522 522 522 522 522 522 522 522 522 522 522 522 522 522 522 522 523 523 523 523 522 522 522 522 521 521 521 521 521 521 520 520 520 520 520 520 520 520 520 520 522 522 522 522 522 522 522 522 524 524 524 524 525 525 524 524 524 524 523 523 524 524 523 523 523 523 522 522 522 522 522 522 522 522 524 524 524 524 523 523 524 524 525 525 526 526 528 528 528 528 528 528 528 528 528 528 528 528 528 528 527 527 526 526 526 526 526 526 526 526 525 525 524 524 522 522 524 524 526 526 526 526 528 528 529 529 529 529 530 530 530 530 530 530 530 530 530 530 530 530 530 530 530 530 530 530 530 530 529 529 530 530 531 531 531 531 530 530 530 530
497 497 497 497 496 496 497 497 497 497 497 497 496 496 494 494 494 494 495 495 496 496 496 496 497 497 497 497 498 498 498 498 498 498 498 498 498 498 499 499 498 498 498 498 498 498 498 498 499 499 499 499 499 499 499 499 499 499 500 500 501 501 502 502 503 503 504 504 504 504 504 504 505 505 506 506 506 506 504 504 503 503 502 502 502 502 502 502 502 502 502 502 502 502 502 502 503 503 506 506 506 506 506 506 504 504 504 504 502 502 501 501 500 500 500 500 499 499 500 500 500 500 500 500 500 500 501 501 502 502 502 502 501 501 501 501 502 502 503 503 504 504 506 506 506 506 506 506 506 506 506 506 505 505 504 504 504 504 504 504 504 504 504 504 504 504 504 504 505 505 505 505 505 505 506 506 506 506 506 506 506 506 506 506 506 506 506 506 507 507 507 507 507 507 507 507 506 506 507 507 507 507 507 507 507 507 507 507 507 507 507 507 508 508 509 509 509 509 509 509 509 509 510 510 510 510 510 510 510 510 509 509 509 509 509 509 509 509 509 509 509 509 509 509 509 509 509 509 509 509 509 509 509 509 509 509 509 509 508 508 508 508 510 510 510 510 510 510 510 510 510 510 510 510 510 510 510 510 510 510 510 510 510 510 510 510 510 510 510 510 511 511 512 512 512 512 511 511 512 512 513 513 513 513 512 512 512 512 513 513 514 514 514 514 514 514 514 514 514 514 514 514 514 514 514 514 514 514 514 514 514 514 514 514 514 514 515 515 515 515 515 515 515 515 515 515 516 516 517 517 516 516 516 516 516 516 517 517 516 516 516 516 515 515 515 515 515 515 514 514 514 514 514 514 514 514 514 514 514 514 514 514 515 515 515 515 515 515 515 515 515 515 515 515 515 515 515 515 515 515 515 515 515 515 515 515 515 515 515 515 516 516 516 516 516 516 518 518 518 518 518 518 518 518 519 519 519 519 520 520 521 521 520 520 520 520 520 520 521 521 521 521 521 521 521 521 521 521 521 521 522 522 522 522 522 522 522 522 523 523 523 523 523 523 525 525 525 525 524 524 524 524 523 523 522 522 522 522 522 522 522 522 522 522 522 522 522 522 522 522 522 522 522 522 522 522 523 523 523 523 522 522 522 522 521 521 521 521 521 521 520 520 520 520 520 520 520 520 520 520 522 522 522 522 522 522 522 522 524 524 524 524 525 525 524 524 524 524 523 523 524 524 523 523 523 523 522 522 522 522 522 522 522 522 524 524 524 524 523 523 524 524 525 525 526 526 528 528 528 528 528 528 528 528 528 528 528 528 528 528 527 527 526 526 526 526 526 526 526 526 525 525 524 524 522 522 524 524 526 526 526 526 528 528 529 529 529 529 530 530 530 530 530 530 530 530 530 530 530 530 530 530 530 530 530 530 530 530 529 529 530 530 531 531 531 531 530 530 530 530
493 493 493 493 493 493 493 493 494 494 494 494 494 494 493 493 492 492 492 492 493 493 494 494 495 495 495 495 495 495 495 495 496 496 496 496 496 496 495 495 494 494 494 494 494 494 496 496 496 496 496 496 496 496 498 498 498 498 498 498 499 499 499 499 501 501 502 502 502 502 502 502 502 502 503 503 502 502 502 502 500 500 500 500 499 499 498 498 498 498 498 498 498 498 498 498 498 498 500 500 500 500 500 500 499 499 499 499 499 499 498 498 498 498 498 498 497 497 497 497 498 498 498 498 498 498 498 498 498 498 499 499 499 499 499 499 499 499 499 499 499 499 499 499 499 499 499 499 499 499 499 499 499 499 499 499 499 499 501 501 501 501 500 500 500 500 500 500 500 500 500 500 500 500 500 500 500 500 500 500 501 501 501 501 501 501 502 502 502 502 502 502 502 502 505 505 505 505 505 505 505 505 505 505 506 506 506 506 506 506 506 506 506 506 506 506 506 506 506 506 506 506 506 506 506 506 507 507 507 507 507 507 507 507 507 507 507 507 507 507 507 507 507 507 506 506 506 506 506 506 507 507 507 507 506 506 506 506 506 506 506 506 507 507 507 507 507 507 507 507 507 507 507 507 507 507 507 507 506 506 506 506 506 506 506 506 506 506 506 506 507 507 508 508 508 508 507 507 507 507 508 508 508 508 509 509 509 509 509 509 509 509 510 510 510 510 510 510 510 510 510 510 509 509 509 509 510 510 510 510 510 510 511 511 512 512 512 512 513 513 513 513 513 513 514 514 514 514 514 514 514 514 514 514 514 514 514 514 514 514 514 514 514 514 514 514 514 514 513 513 513 513 513 513 513 513 513 513 513 513 513 513 513 513 514 514 514 514 514 514 514 514 514 514 514 514 513 513 513 513 513 513 513 513 513 513 513 513 513 513 514 514 514 514 514 514 515 515 515 515 515 515 516 516 517 517 517 517 517 517 518 518 518 518 518 518 518 518 518 518 518 518 518 518 517 517 517 517 517 517 517 517 517 517 518 518 518 518 518 518 518 518 518 518 519 519 519 519 522 522 522 522 520 520 519 519 519 519 519 519 519 519 519 519 519 519 519 519 519 519 520 520 520 520 521 521 521 521 521 521 520 520 519 519 518 518 518 518 518 518 518 518 518 518 518 518 518 518 518 518 518 518 519 519 519 519 519 519 520 520 521 521 522 522 522 522 521 521 521 521 521 521 521 521 521 521 519 519 519 519 519 519 519 519 519 519 518 518 518 518 518 518 518 518 519 519 519 519 522 522 523 523 523 523 525 525 525 525 526 526 526 526 525 525 523 523 522 522 520 520 520 520 518 518 517 517 518 518 519 519 522 522 526 526 526 526 526 526 526 526 527 527 527 527 527 527 527 527 527 527 526 526 526 526 526 526 526 526 526 526 527 527 528 528 528 528 528 528 528 528
493 493 493 493 493 493 493 493 494 494 494 494 494 494 493 493 492 492 492 492 493 493 494 494 495 495 495 495 495 495 495 495 496 496 496 496 496 496 495 495 494 494 494 494 494 494 496 496 496 496 496 496 496 496 498 498 498 498 498 498 499 499 499 499 501 501 502 502 502 502 502 502 502 502 503 503 502 502 502 502 500 500 500 500 499 499 498 498 498 498 498 498 498 498 498 498 498 498 500 500 500 500 500 500 499 499 499 499 499 499 498 498 498 498 498 498 497 497 497 497 498 498 498 498 498 498 498 498 498 498 499 499 499 499 499 499 499 499 499 499 499 499 499 499 499 499 499 499 499 499 499 499 499 499 499 499 499 499 501 501 501 501 500 500 500 500 500 500 500 500 500 500 500 500 500 500 500 500 500 500 501 501 501 501 501 501 502 502 502 502 502 502 502 502 505 505 505 505 505 505 505 505 505 505 506 506 506 506 506 506 506 506 506 506 506 506 506 506 506 506 506 506 506 506 506 506 507 507 507 507 507 507 507 507 507 507 507 507 507 507 507 507 507 507 506 506 506 506 506 506 507 507 507 507 506 506 506 506 506 506 506 506 507 507 507 507 507 507 507 507 507 507 507 507 507 507 507 507 506 506 506 506 506 506 506 506 506 506 506 506 507 507 508 508 508 508 507 507 507 507 508 508 508 508 509 509 509 509 509 509 509 509 510 510 510 510 510 510 510 510 510 510 509 509 509 509 510 510 510 510 510 510 511 511 512 512 512 512 513 513 513 513 513 513 514 514 514 514 514 514 514 514 514 514 514 514 514 514 514 514 514 514 514 514 514 514 514 514 513 513 513 513 513 513 513 513 513 513 513 513 513 513 513 513 514 514 514 514 514 514 514 514 514 514 514 514 513 513 513 513 513 513 513 513 513 513 513 513 513 513 514 514 514 514 514 514 515 515 515 515 515 515 516 516 517 517 517 517 517 517 518 518 518 518 518 518 518 518 518 518 518 518 518 518 517 517 517 517 517 517 517 517 517 517 518 518 518 518 518 518 518 518 518 518 519 519 519 519 522 522 522 522 520 520 519 519 519 519 519 519 519 519 519 519 519 519 519 519 519 519 520 520 520 520 521 521 521 521 521 521 520 520 519 519 518 518 518 518 518 518 518 518 518 518 518 518 518 518 518 518 518 518 519 519 519 519 519 519 520 520 521 521 522 522 522 522 521 521 521 521 521 521 521 521 521 521 519 519 519 519 519 519 519 519 519 519 518 518 518 518 518 518 518 518 519 519 519 519 522 522 523 523 523 523 525 525 525 525 526 526 526 526 525 525 523 523 522 522 520 520 520 520 518 518 517 517 518 518 519 519 522 522 526 526 526 526 526 526 526 526 527 527 527 527 527 527 527 527 527 527 526 526 526 526 526 526 526 526 526 526 527 527 528 528 528 528 528 528 528 528
