1422 1422 1427 1427 1430 1430 1430 1430 1434 1434 1443 1443 1450 1450 1449 1449 1442 1442 1433 1433 1438 1438 1440 1440 1430 1430 1423 1423 1417 1417 1418 1418 1422 1422 1436 1436 1446 1446 1452 1452 1457 1457 1457 1457 1457 1457 1460 1460 1460 1460 1457 1457 1442 1442 1438 1438 1437 1437 1438 1438 1443 1443 1455 1455 1465 1465 1465 1465 1466 1466 1474 1474 1479 1479 1479 1479 1469 1469 1466 1466 1466 1466 1474 1474 1468 1468 1462 1462 1444 1444 1440 1440 1440 1440 1440 1440 1434 1434 1433 1433 1434 1434 1444 1444 1450 1450 1457 1457 1459 1459 1462 1462 1462 1462 1466 1466 1466 1466 1466 1466 1462 1462 1465 1465 1458 1458 1454 1454 1454 1454 1450 1450 1442 1442 1442 1442 1442 1442 1441 1441 1437 1437 1443 1443 1455 1455 1462 1462 1475 1475 1481 1481 1483 1483 1483 1483 1482 1482 1480 1480 1486 1486 1497 1497 1499 1499 1504 1504 1525 1525 1535 1535 1530 1530 1497 1497 1493 1493 1490 1490 1486 1486 1486 1486 1485 1485 1486 1486 1486 1486 1486 1486 1486 1486 1485 1485 1481 1481 1479 1479 1479 1479 1486 1486 1496 1496 1497 1497 1499 1499 1497 1497 1504 1504 1515 1515 1515 1515 1510 1510 1499 1499 1497 1497 1496 1496 1496 1496 1497 1497 1496 1496 1496 1496 1497 1497 1499 1499 1500 1500 1497 1497 1499 1499 1499 1499 1499 1499 1499 1499 1499 1499 1506 1506 1510 1510 1510 1510 1512 1512 1512 1512 1506 1506 1499 1499 1494 1494 1494 1494 1493 1493 1490 1490 1490 1490 1490 1490 1494 1494 1494 1494 1494 1494 1494 1494 1494 1494 1494 1494 1497 1497 1500 1500 1499 1499 1496 1496 1500 1500 1506 1506 1509 1509 1506 1506 1502 1502 1499 1499 1506 1506 1507 1507 1506 1506 1497 1497 1494 1494 1494 1494 1497 1497 1497 1497 1493 1493 1493 1493 1491 1491 1485 1485 1485 1485 1490 1490 1499 1499 1506 1506 1506 1506 1499 1499 1497 1497 1494 1494 1494 1494 1493 1493 1491 1491 1490 1490 1490 1490 1494 1494 1504 1504 1510 1510 1506 1506 1497 1497 1496 1496 1494 1494 1494 1494 1494 1494 1497 1497 1494 1494 1490 1490 1488 1488 1493 1493 1493 1493 1489 1489 1486 1486 1481 1481 1481 1481 1488 1488 1488 1488 1479 1479 1480 1480 1483 1483 1491 1491 1497 1497 1499 1499 1499 1499 1499 1499 1506 1506 1510 1510 1517 1517 1520 1520 1527 1527 1574 1574 1588 1588 1585 1585 1585 1585 1586 1586 1582 1582 1576 1576 1533 1533 1520 1520 1520 1520 1524 1524 1514 1514 1509 1509 1507 1507 1507 1507 1515 1515 1519 1519 1526 1526 1535 1535 1544 1544 1550 1550 1544 1544 1560 1560 1582 1582 1564 1564 1466 1466 1466 1466 1479 1479 1481 1481 1483 1483 1486 1486 1489 1489 1497 1497 1505 1505 1507 1507 1496 1496 1494 1494 1497 1497 1532 1532 1564 1564 1594 1594 1610 1610 1616 1616 1595 1595 1584 1584 1582 1582 1578 1578 1569 1569 1569 1569 1574 1574 1574 1574 1576 1576 1565 1565 1555 1555 1549 1549 1544 1544 1542 1542 1555 1555 1562 1562 1562 1562 1560 1560 1549 1549 1540 1540 1517 1517 1500 1500 1489 1489 1502 1502 1497 1497 1500 1500 1504 1504 1510 1510 1509 1509 1520 1520 1546 1546 1556 1556 1558 1558 1558 1558 1554 1554 1609 1609 1588 1588 1564 1564 1565 1565 1565 1565 1555 1555 1520 1520 1496 1496 1488 1488 1480 1480 1474 1474 1474 1474 1474 1474 1477 1477 1500 1500 1494 1494 1569 1569 1637 1637 1642 1642 1637 1637 1591 1591 1589 1589 1565 1565 1565 1565 1566 1566 1564 1564 1561 1561 1560 1560
1422 1422 1427 1427 1430 1430 1430 1430 1434 1434 1443 1443 1450 1450 1449 1449 1442 1442 1433 1433 1438 1438 1440 1440 1430 1430 1423 1423 1417 1417 1418 1418 1422 1422 1436 1436 1446 1446 1452 1452 1457 1457 1457 1457 1457 1457 1460 1460 1460 1460 1457 1457 1442 1442 1438 1438 1437 1437 1438 1438 1443 1443 1455 1455 1465 1465 1465 1465 1466 1466 1474 1474 1479 1479 1479 1479 1469 1469 1466 1466 1466 1466 1474 1474 1468 1468 1462 1462 1444 1444 1440 1440 1440 1440 1440 1440 1434 1434 1433 1433 1434 1434 1444 1444 1450 1450 1457 1457 1459 1459 1462 1462 1462 1462 1466 1466 1466 1466 1466 1466 1462 1462 1465 1465 1458 1458 1454 1454 1454 1454 1450 1450 1442 1442 1442 1442 1442 1442 1441 1441 1437 1437 1443 1443 1455 1455 1462 1462 1475 1475 1481 1481 1483 1483 1483 1483 1482 1482 1480 1480 1486 1486 1497 1497 1499 1499 1504 1504 1525 1525 1535 1535 1530 1530 1497 1497 1493 1493 1490 1490 1486 1486 1486 1486 1485 1485 1486 1486 1486 1486 1486 1486 1486 1486 1485 1485 1481 1481 1479 1479 1479 1479 1486 1486 1496 1496 1497 1497 1499 1499 1497 1497 1504 1504 1515 1515 1515 1515 1510 1510 1499 1499 1497 1497 1496 1496 1496 1496 1497 1497 1496 1496 1496 1496 1497 1497 1499 1499 1500 1500 1497 1497 1499 1499 1499 1499 1499 1499 1499 1499 1499 1499 1506 1506 1510 1510 1510 1510 1512 1512 1512 1512 1506 1506 1499 1499 1494 1494 1494 1494 1493 1493 1490 1490 1490 1490 1490 1490 1494 1494 1494 1494 1494 1494 1494 1494 1494 1494 1494 1494 1497 1497 1500 1500 1499 1499 1496 1496 1500 1500 1506 1506 1509 1509 1506 1506 1502 1502 1499 1499 1506 1506 1507 1507 1506 1506 1497 1497 1494 1494 1494 1494 1497 1497 1497 1497 1493 1493 1493 1493 1491 1491 1485 1485 1485 1485 1490 1490 1499 1499 1506 1506 1506 1506 1499 1499 1497 1497 1494 1494 1494 1494 1493 1493 1491 1491 1490 1490 1490 1490 1494 1494 1504 1504 1510 1510 1506 1506 1497 1497 1496 1496 1494 1494 1494 1494 1494 1494 1497 1497 1494 1494 1490 1490 1488 1488 1493 1493 1493 1493 1489 1489 1486 1486 1481 1481 1481 1481 1488 1488 1488 1488 1479 1479 1480 1480 1483 1483 1491 1491 1497 1497 1499 1499 1499 1499 1499 1499 1506 1506 1510 1510 1517 1517 1520 1520 1527 1527 1574 1574 1588 1588 1585 1585 1585 1585 1586 1586 1582 1582 1576 1576 1533 1533 1520 1520 1520 1520 1524 1524 1514 1514 1509 1509 1507 1507 1507 1507 1515 1515 1519 1519 1526 1526 1535 1535 1544 1544 1550 1550 1544 1544 1560 1560 1582 1582 1564 1564 1466 1466 1466 1466 1479 1479 1481 1481 1483 1483 1486 1486 1489 1489 1497 1497 1505 1505 1507 1507 1496 1496 1494 1494 1497 1497 1532 1532 1564 1564 1594 1594 1610 1610 1616 1616 1595 1595 1584 1584 1582 1582 1578 1578 1569 1569 1569 1569 1574 1574 1574 1574 1576 1576 1565 1565 1555 1555 1549 1549 1544 1544 1542 1542 1555 1555 1562 1562 1562 1562 1560 1560 1549 1549 1540 1540 1517 1517 1500 1500 1489 1489 1502 1502 1497 1497 1500 1500 1504 1504 1510 1510 1509 1509 1520 1520 1546 1546 1556 1556 1558 1558 1558 1558 1554 1554 1609 1609 1588 1588 1564 1564 1565 1565 1565 1565 1555 1555 1520 1520 1496 1496 1488 1488 1480 1480 1474 1474 1474 1474 1474 1474 1477 1477 1500 1500 1494 1494 1569 1569 1637 1637 1642 1642 1637 1637 1591 1591 1589 1589 1565 1565 1565 1565 1566 1566 1564 1564 1561 1561 1560 1560
1414 1414 1419 1419 1423 1423 1426 1426 1427 1427 1433 1433 1438 1438 1436 1436 1430 1430 1424 1424 1421 1421 1421 1421 1417 1417 1409 1409 1405 1405 1406 1406 1410 1410 1422 1422 1426 1426 1430 1430 1436 1436 1439 1439 1439 1439 1438 1438 1438 1438 1434 1434 1430 1430 1427 1427 1422 1422 1421 1421 1426 1426 1433 1433 1443 1443 1453 1453 1454 1454 1460 1460 1465 1465 1465 1465 1455 1455 1450 1450 1450 1450 1452 1452 1443 1443 1438 1438 1431 1431 1427 1427 1427 1427 1426 1426 1421 1421 1422 1422 1427 1427 1434 1434 1434 1434 1434 1434 1440 1440 1446 1446 1447 1447 1447 1447 1446 1446 1446 1446 1441 1441 1441 1441 1434 1434 1430 1430 1427 1427 1422 1422 1422 1422 1423 1423 1426 1426 1426 1426 1426 1426 1434 1434 1440 1440 1446 1446 1453 1453 1458 1458 1450 1450 1449 1449 1446 1446 1443 1443 1440 1440 1442 1442 1452 1452 1477 1477 1485 1485 1486 1486 1486 1486 1488 1488 1486 1486 1483 1483 1483 1483 1482 1482 1478 1478 1478 1478 1480 1480 1482 1482 1481 1481 1479 1479 1474 1474 1472 1472 1474 1474 1475 1475 1481 1481 1482 1482 1482 1482 1475 1475 1475 1475 1491 1491 1496 1496 1494 1494 1491 1491 1488 1488 1486 1486 1488 1488 1486 1486 1483 1483 1479 1479 1481 1481 1483 1483 1488 1488 1488 1488 1488 1488 1485 1485 1485 1485 1485 1485 1485 1485 1486 1486 1486 1486 1486 1486 1491 1491 1491 1491 1489 1489 1486 1486 1486 1486 1482 1482 1482 1482 1478 1478 1478 1478 1480 1480 1480 1480 1482 1482 1482 1482 1479 1479 1479 1479 1481 1481 1481 1481 1485 1485 1485 1485 1485 1485 1489 1489 1494 1494 1502 1502 1493 1493 1488 1488 1488 1488 1490 1490 1497 1497 1490 1490 1485 1485 1478 1478 1477 1477 1480 1480 1472 1472 1470 1470 1470 1470 1460 1460 1455 1455 1458 1458 1468 1468 1474 1474 1479 1479 1479 1479 1474 1474 1474 1474 1474 1474 1477 1477 1477 1477 1475 1475 1475 1475 1475 1475 1480 1480 1488 1488 1497 1497 1494 1494 1489 1489 1483 1483 1480 1480 1478 1478 1477 1477 1477 1477 1477 1477 1466 1466 1466 1466 1469 1469 1470 1470 1469 1469 1466 1466 1462 1462 1459 1459 1462 1462 1469 1469 1466 1466 1466 1466 1470 1470 1479 1479 1486 1486 1485 1485 1474 1474 1470 1470 1468 1468 1465 1465 1465 1465 1465 1465 1459 1459 1474 1474 1474 1474 1471 1471 1471 1471 1481 1481 1490 1490 1490 1490 1460 1460 1447 1447 1447 1447 1463 1463 1466 1466 1466 1466 1468 1468 1474 1474 1486 1486 1497 1497 1502 1502 1500 1500 1500 1500 1500 1500 1502 1502 1488 1488 1474 1474 1462 1462 1462 1462 1462 1462 1465 1465 1474 1474 1475 1475 1474 1474 1474 1474 1482 1482 1488 1488 1493 1493 1479 1479 1477 1477 1479 1479 1481 1481 1481 1481 1453 1453 1438 1438 1438 1438 1486 1486 1500 1500 1497 1497 1485 1485 1496 1496 1520 1520 1520 1520 1520 1520 1520 1520 1520 1520 1505 1505 1505 1505 1497 1497 1488 1488 1488 1488 1486 1486 1486 1486 1462 1462 1459 1459 1444 1444 1437 1437 1430 1430 1424 1424 1424 1424 1424 1424 1497 1497 1497 1497 1504 1504 1509 1509 1444 1444 1507 1507 1530 1530 1539 1539 1530 1530 1515 1515 1565 1565 1509 1509 1502 1502 1513 1513 1530 1530 1519 1519 1497 1497 1490 1490 1485 1485 1472 1472 1469 1469 1471 1471 1477 1477 1485 1485 1486 1486 1486 1486 1550 1550 1560 1560 1569 1569 1574 1574 1560 1560 1551 1551 1532 1532 1524 1524 1524 1524 1514 1514 1497 1497 1497 1497
1414 1414 1419 1419 1423 1423 1426 1426 1427 1427 1433 1433 1438 1438 1436 1436 1430 1430 1424 1424 1421 1421 1421 1421 1417 1417 1409 1409 1405 1405 1406 1406 1410 1410 1422 1422 1426 1426 1430 1430 1436 1436 1439 1439 1439 1439 1438 1438 1438 1438 1434 1434 1430 1430 1427 1427 1422 1422 1421 1421 1426 1426 1433 1433 1443 1443 1453 1453 1454 1454 1460 1460 1465 1465 1465 1465 1455 1455 1450 1450 1450 1450 1452 1452 1443 1443 1438 1438 1431 1431 1427 1427 1427 1427 1426 1426 1421 1421 1422 1422 1427 1427 1434 1434 1434 1434 1434 1434 1440 1440 1446 1446 1447 1447 1447 1447 1446 1446 1446 1446 1441 1441 1441 1441 1434 1434 1430 1430 1427 1427 1422 1422 1422 1422 1423 1423 1426 1426 1426 1426 1426 1426 1434 1434 1440 1440 1446 1446 1453 1453 1458 1458 1450 1450 1449 1449 1446 1446 1443 1443 1440 1440 1442 1442 1452 1452 1477 1477 1485 1485 1486 1486 1486 1486 1488 1488 1486 1486 1483 1483 1483 1483 1482 1482 1478 1478 1478 1478 1480 1480 1482 1482 1481 1481 1479 1479 1474 1474 1472 1472 1474 1474 1475 1475 1481 1481 1482 1482 1482 1482 1475 1475 1475 1475 1491 1491 1496 1496 1494 1494 1491 1491 1488 1488 1486 1486 1488 1488 1486 1486 1483 1483 1479 1479 1481 1481 1483 1483 1488 1488 1488 1488 1488 1488 1485 1485 1485 1485 1485 1485 1485 1485 1486 1486 1486 1486 1486 1486 1491 1491 1491 1491 1489 1489 1486 1486 1486 1486 1482 1482 1482 1482 1478 1478 1478 1478 1480 1480 1480 1480 1482 1482 1482 1482 1479 1479 1479 1479 1481 1481 1481 1481 1485 1485 1485 1485 1485 1485 1489 1489 1494 1494 1502 1502 1493 1493 1488 1488 1488 1488 1490 1490 1497 1497 1490 1490 1485 1485 1478 1478 1477 1477 1480 1480 1472 1472 1470 1470 1470 1470 1460 1460 1455 1455 1458 1458 1468 1468 1474 1474 1479 1479 1479 1479 1474 1474 1474 1474 1474 1474 1477 1477 1477 1477 1475 1475 1475 1475 1475 1475 1480 1480 1488 1488 1497 1497 1494 1494 1489 1489 1483 1483 1480 1480 1478 1478 1477 1477 1477 1477 1477 1477 1466 1466 1466 1466 1469 1469 1470 1470 1469 1469 1466 1466 1462 1462 1459 1459 1462 1462 1469 1469 1466 1466 1466 1466 1470 1470 1479 1479 1486 1486 1485 1485 1474 1474 1470 1470 1468 1468 1465 1465 1465 1465 1465 1465 1459 1459 1474 1474 1474 1474 1471 1471 1471 1471 1481 1481 1490 1490 1490 1490 1460 1460 1447 1447 1447 1447 1463 1463 1466 1466 1466 1466 1468 1468 1474 1474 1486 1486 1497 1497 1502 1502 1500 1500 1500 1500 1500 1500 1502 1502 1488 1488 1474 1474 1462 1462 1462 1462 1462 1462 1465 1465 1474 1474 1475 1475 1474 1474 1474 1474 1482 1482 1488 1488 1493 1493 1479 1479 1477 1477 1479 1479 1481 1481 1481 1481 1453 1453 1438 1438 1438 1438 1486 1486 1500 1500 1497 1497 1485 1485 1496 1496 1520 1520 1520 1520 1520 1520 1520 1520 1520 1520 1505 1505 1505 1505 1497 1497 1488 1488 1488 1488 1486 1486 1486 1486 1462 1462 1459 1459 1444 1444 1437 1437 1430 1430 1424 1424 1424 1424 1424 1424 1497 1497 1497 1497 1504 1504 1509 1509 1444 1444 1507 1507 1530 1530 1539 1539 1530 1530 1515 1515 1565 1565 1509 1509 1502 1502 1513 1513 1530 1530 1519 1519 1497 1497 1490 1490 1485 1485 1472 1472 1469 1469 1471 1471 1477 1477 1485 1485 1486 1486 1486 1486 1550 1550 1560 1560 1569 1569 1574 1574 1560 1560 1551 1551 1532 1532 1524 1524 1524 1524 1514 1514 1497 1497 1497 1497
1405 1405 1410 1410 1412 1412 1414 1414 1415 1415 1419 1419 1430 1430 1427 1427 1421 1421 1418 1418 1414 1414 1413 1413 1404 1404 1401 1401 1399 1399 1398 1398 1398 1398 1414 1414 1421 1421 1424 1424 1427 1427 1430 1430 1430 1430 1423 1423 1423 1423 1417 1417 1413 1413 1412 1412 1410 1410 1407 1407 1410 1410 1417 1417 1427 1427 1438 1438 1439 1439 1444 1444 1449 1449 1446 1446 1440 1440 1436 1436 1434 1434 1433 1433 1426 1426 1419 1419 1416 1416 1415 1415 1415 1415 1412 1412 1410 1410 1410 1410 1414 1414 1418 1418 1418 1418 1417 1417 1419 1419 1431 1431 1433 1433 1430 1430 1424 1424 1424 1424 1423 1423 1421 1421 1419 1419 1414 1414 1414 1414 1414 1414 1414 1414 1415 1415 1416 1416 1416 1416 1417 1417 1421 1421 1422 1422 1426 1426 1426 1426 1423 1423 1423 1423 1423 1423 1424 1424 1424 1424 1419 1419 1421 1421 1421 1421 1427 1427 1446 1446 1446 1446 1449 1449 1454 1454 1469 1469 1469 1469 1466 1466 1462 1462 1459 1459 1460 1460 1460 1460 1453 1453 1452 1452 1450 1450 1450 1450 1452 1452 1456 1456 1456 1456 1462 1462 1462 1462 1454 1454 1444 1444 1444 1444 1450 1450 1455 1455 1456 1456 1456 1456 1459 1459 1463 1463 1465 1465 1468 1468 1466 1466 1463 1463 1466 1466 1472 1472 1477 1477 1480 1480 1480 1480 1477 1477 1472 1472 1471 1471 1471 1471 1460 1460 1460 1460 1466 1466 1474 1474 1474 1474 1468 1468 1458 1458 1458 1458 1457 1457 1449 1449 1446 1446 1442 1442 1444 1444 1444 1444 1443 1443 1442 1442 1442 1442 1444 1444 1450 1450 1450 1450 1449 1449 1449 1449 1452 1452 1457 1457 1466 1466 1466 1466 1470 1470 1470 1470 1470 1470 1471 1471 1468 1468 1466 1466 1462 1462 1447 1447 1443 1443 1446 1446 1443 1443 1446 1446 1444 1444 1438 1438 1437 1437 1441 1441 1444 1444 1447 1447 1459 1459 1459 1459 1458 1458 1458 1458 1465 1465 1468 1468 1468 1468 1468 1468 1465 1465 1466 1466 1469 1469 1471 1471 1477 1477 1474 1474 1466 1466 1453 1453 1443 1443 1440 1440 1433 1433 1433 1433 1433 1433 1433 1433 1431 1431 1431 1431 1431 1431 1433 1433 1440 1440 1440 1440 1433 1433 1427 1427 1434 1434 1444 1444 1446 1446 1450 1450 1450 1450 1457 1457 1457 1457 1440 1440 1436 1436 1430 1430 1434 1434 1438 1438 1437 1437 1436 1436 1437 1437 1434 1434 1430 1430 1433 1433 1433 1433 1433 1433 1431 1431 1427 1427 1426 1426 1426 1426 1430 1430 1431 1431 1436 1436 1446 1446 1459 1459 1466 1466 1474 1474 1475 1475 1471 1471 1466 1466 1466 1466 1466 1466 1462 1462 1458 1458 1447 1447 1450 1450 1450 1450 1446 1446 1449 1449 1449 1449 1446 1446 1446 1446 1447 1447 1455 1455 1468 1468 1465 1465 1465 1465 1460 1460 1459 1459 1449 1449 1440 1440 1434 1434 1434 1434 1447 1447 1478 1478 1477 1477 1477 1477 1480 1480 1486 1486 1486 1486 1481 1481 1481 1481 1483 1483 1483 1483 1480 1480 1471 1471 1465 1465 1466 1466 1466 1466 1453 1453 1431 1431 1424 1424 1422 1422 1426 1426 1412 1412 1399 1399 1385 1385 1364 1364 1370 1370 1427 1427 1452 1452 1458 1458 1437 1437 1437 1437 1438 1438 1438 1438 1417 1417 1417 1417 1436 1436 1447 1447 1452 1452 1470 1470 1478 1478 1481 1481 1488 1488 1485 1485 1469 1469 1468 1468 1466 1466 1466 1466 1470 1470 1477 1477 1497 1497 1562 1562 1535 1535 1535 1535 1542 1542 1542 1542 1532 1532 1522 1522 1510 1510 1497 1497 1493 1493 1486 1486 1482 1482 1477 1477
1405 1405 1410 1410 1412 1412 1414 1414 1415 1415 1419 1419 1430 1430 1427 1427 1421 1421 1418 1418 1414 1414 1413 1413 1404 1404 1401 1401 1399 1399 1398 1398 1398 1398 1414 1414 1421 1421 1424 1424 1427 1427 1430 1430 1430 1430 1423 1423 1423 1423 1417 1417 1413 1413 1412 1412 1410 1410 1407 1407 1410 1410 1417 1417 1427 1427 1438 1438 1439 1439 1444 1444 1449 1449 1446 1446 1440 1440 1436 1436 1434 1434 1433 1433 1426 1426 1419 1419 1416 1416 1415 1415 1415 1415 1412 1412 1410 1410 1410 1410 1414 1414 1418 1418 1418 1418 1417 1417 1419 1419 1431 1431 1433 1433 1430 1430 1424 1424 1424 1424 1423 1423 1421 1421 1419 1419 1414 1414 1414 1414 1414 1414 1414 1414 1415 1415 1416 1416 1416 1416 1417 1417 1421 1421 1422 1422 1426 1426 1426 1426 1423 1423 1423 1423 1423 1423 1424 1424 1424 1424 1419 1419 1421 1421 1421 1421 1427 1427 1446 1446 1446 1446 1449 1449 1454 1454 1469 1469 1469 1469 1466 1466 1462 1462 1459 1459 1460 1460 1460 1460 1453 1453 1452 1452 1450 1450 1450 1450 1452 1452 1456 1456 1456 1456 1462 1462 1462 1462 1454 1454 1444 1444 1444 1444 1450 1450 1455 1455 1456 1456 1456 1456 1459 1459 1463 1463 1465 1465 1468 1468 1466 1466 1463 1463 1466 1466 1472 1472 1477 1477 1480 1480 1480 1480 1477 1477 1472 1472 1471 1471 1471 1471 1460 1460 1460 1460 1466 1466 1474 1474 1474 1474 1468 1468 1458 1458 1458 1458 1457 1457 1449 1449 1446 1446 1442 1442 1444 1444 1444 1444 1443 1443 1442 1442 1442 1442 1444 1444 1450 1450 1450 1450 1449 1449 1449 1449 1452 1452 1457 1457 1466 1466 1466 1466 1470 1470 1470 1470 1470 1470 1471 1471 1468 1468 1466 1466 1462 1462 1447 1447 1443 1443 1446 1446 1443 1443 1446 1446 1444 1444 1438 1438 1437 1437 1441 1441 1444 1444 1447 1447 1459 1459 1459 1459 1458 1458 1458 1458 1465 1465 1468 1468 1468 1468 1468 1468 1465 1465 1466 1466 1469 1469 1471 1471 1477 1477 1474 1474 1466 1466 1453 1453 1443 1443 1440 1440 1433 1433 1433 1433 1433 1433 1433 1433 1431 1431 1431 1431 1431 1431 1433 1433 1440 1440 1440 1440 1433 1433 1427 1427 1434 1434 1444 1444 1446 1446 1450 1450 1450 1450 1457 1457 1457 1457 1440 1440 1436 1436 1430 1430 1434 1434 1438 1438 1437 1437 1436 1436 1437 1437 1434 1434 1430 1430 1433 1433 1433 1433 1433 1433 1431 1431 1427 1427 1426 1426 1426 1426 1430 1430 1431 1431 1436 1436 1446 1446 1459 1459 1466 1466 1474 1474 1475 1475 1471 1471 1466 1466 1466 1466 1466 1466 1462 1462 1458 1458 1447 1447 1450 1450 1450 1450 1446 1446 1449 1449 1449 1449 1446 1446 1446 1446 1447 1447 1455 1455 1468 1468 1465 1465 1465 1465 1460 1460 1459 1459 1449 1449 1440 1440 1434 1434 1434 1434 1447 1447 1478 1478 1477 1477 1477 1477 1480 1480 1486 1486 1486 1486 1481 1481 1481 1481 1483 1483 1483 1483 1480 1480 1471 1471 1465 1465 1466 1466 1466 1466 1453 1453 1431 1431 1424 1424 1422 1422 1426 1426 1412 1412 1399 1399 1385 1385 1364 1364 1370 1370 1427 1427 1452 1452 1458 1458 1437 1437 1437 1437 1438 1438 1438 1438 1417 1417 1417 1417 1436 1436 1447 1447 1452 1452 1470 1470 1478 1478 1481 1481 1488 1488 1485 1485 1469 1469 1468 1468 1466 1466 1466 1466 1470 1470 1477 1477 1497 1497 1562 1562 1535 1535 1535 1535 1542 1542 1542 1542 1532 1532 1522 1522 1510 1510 1497 1497 1493 1493 1486 1486 1482 1482 1477 1477
1395 1395 1399 1399 1402 1402 1401 1401 1402 1402 1406 1406 1411 1411 1411 1411 1409 1409 1406 1406 1401 1401 1398 1398 1395 1395 1393 1393 1394 1394 1395 1395 1397 1397 1404 1404 1413 1413 1414 1414 1417 1417 1419 1419 1418 1418 1417 1417 1412 1412 1406 1406 1406 1406 1406 1406 1401 1401 1398 1398 1400 1400 1406 1406 1411 1411 1418 1418 1418 1418 1419 1419 1430 1430 1430 1430 1424 1424 1423 1423 1422 1422 1421 1421 1414 1414 1409 1409 1407 1407 1408 1408 1407 1407 1401 1401 1397 1397 1397 1397 1401 1401 1401 1401 1400 1400 1398 1398 1398 1398 1405 1405 1407 1407 1405 1405 1397 1397 1394 1394 1395 1395 1397 1397 1395 1395 1390 1390 1394 1394 1399 1399 1404 1404 1406 1406 1410 1410 1409 1409 1411 1411 1413 1413 1413 1413 1409 1409 1406 1406 1404 1404 1402 1402 1402 1402 1403 1403 1404 1404 1404 1404 1400 1400 1399 1399 1400 1400 1408 1408 1408 1408 1399 1399 1399 1399 1403 1403 1420 1420 1421 1421 1421 1421 1406 1406 1406 1406 1419 1419 1411 1411 1411 1411 1430 1430 1434 1434 1437 1437 1442 1442 1444 1444 1440 1440 1440 1440 1434 1434 1430 1430 1426 1426 1426 1426 1426 1426 1427 1427 1436 1436 1438 1438 1439 1439 1440 1440 1441 1441 1444 1444 1442 1442 1444 1444 1446 1446 1446 1446 1446 1446 1450 1450 1452 1452 1455 1455 1455 1455 1447 1447 1439 1439 1439 1439 1442 1442 1447 1447 1441 1441 1430 1430 1430 1430 1436 1436 1436 1436 1431 1431 1426 1426 1426 1426 1427 1427 1427 1427 1427 1427 1430 1430 1430 1430 1430 1430 1431 1431 1431 1431 1430 1430 1426 1426 1423 1423 1420 1420 1418 1418 1416 1416 1415 1415 1415 1415 1413 1413 1412 1412 1413 1413 1419 1419 1422 1422 1421 1421 1419 1419 1419 1419 1420 1420 1426 1426 1426 1426 1422 1422 1419 1419 1424 1424 1426 1426 1426 1426 1433 1433 1430 1430 1430 1430 1441 1441 1446 1446 1452 1452 1452 1452 1452 1452 1450 1450 1452 1452 1454 1454 1454 1454 1446 1446 1444 1444 1436 1436 1427 1427 1426 1426 1424 1424 1419 1419 1419 1419 1420 1420 1420 1420 1417 1417 1415 1415 1415 1415 1418 1418 1419 1419 1419 1419 1411 1411 1409 1409 1414 1414 1414 1414 1418 1418 1418 1418 1418 1418 1417 1417 1417 1417 1419 1419 1419 1419 1416 1416 1416 1416 1421 1421 1422 1422 1422 1422 1420 1420 1420 1420 1420 1420 1422 1422 1421 1421 1415 1415 1412 1412 1418 1418 1420 1420 1422 1422 1423 1423 1424 1424 1426 1426 1430 1430 1441 1441 1450 1450 1459 1459 1457 1457 1454 1454 1446 1446 1434 1434 1426 1426 1423 1423 1420 1420 1421 1421 1423 1423 1420 1420 1418 1418 1422 1422 1426 1426 1426 1426 1424 1424 1430 1430 1440 1440 1450 1450 1449 1449 1449 1449 1449 1449 1444 1444 1444 1444 1440 1440 1431 1431 1431 1431 1442 1442 1447 1447 1442 1442 1444 1444 1453 1453 1454 1454 1449 1449 1446 1446 1446 1446 1447 1447 1449 1449 1446 1446 1441 1441 1441 1441 1447 1447 1447 1447 1427 1427 1419 1419 1417 1417 1412 1412 1405 1405 1392 1392 1385 1385 1363 1363 1363 1363 1363 1363 1367 1367 1405 1405 1417 1417 1426 1426 1437 1437 1437 1437 1438 1438 1426 1426 1417 1417 1417 1417 1423 1423 1426 1426 1434 1434 1452 1452 1455 1455 1465 1465 1457 1457 1447 1447 1454 1454 1452 1452 1450 1450 1450 1450 1450 1450 1453 1453 1475 1475 1502 1502 1509 1509 1510 1510 1513 1513 1507 1507 1502 1502 1497 1497 1486 1486 1469 1469 1440 1440 1424 1424 1423 1423
1395 1395 1399 1399 1402 1402 1401 1401 1402 1402 1406 1406 1411 1411 1411 1411 1409 1409 1406 1406 1401 1401 1398 1398 1395 1395 1393 1393 1394 1394 1395 1395 1397 1397 1404 1404 1413 1413 1414 1414 1417 1417 1419 1419 1418 1418 1417 1417 1412 1412 1406 1406 1406 1406 1406 1406 1401 1401 1398 1398 1400 1400 1406 1406 1411 1411 1418 1418 1418 1418 1419 1419 1430 1430 1430 1430 1424 1424 1423 1423 1422 1422 1421 1421 1414 1414 1409 1409 1407 1407 1408 1408 1407 1407 1401 1401 1397 1397 1397 1397 1401 1401 1401 1401 1400 1400 1398 1398 1398 1398 1405 1405 1407 1407 1405 1405 1397 1397 1394 1394 1395 1395 1397 1397 1395 1395 1390 1390 1394 1394 1399 1399 1404 1404 1406 1406 1410 1410 1409 1409 1411 1411 1413 1413 1413 1413 1409 1409 1406 1406 1404 1404 1402 1402 1402 1402 1403 1403 1404 1404 1404 1404 1400 1400 1399 1399 1400 1400 1408 1408 1408 1408 1399 1399 1399 1399 1403 1403 1420 1420 1421 1421 1421 1421 1406 1406 1406 1406 1419 1419 1411 1411 1411 1411 1430 1430 1434 1434 1437 1437 1442 1442 1444 1444 1440 1440 1440 1440 1434 1434 1430 1430 1426 1426 1426 1426 1426 1426 1427 1427 1436 1436 1438 1438 1439 1439 1440 1440 1441 1441 1444 1444 1442 1442 1444 1444 1446 1446 1446 1446 1446 1446 1450 1450 1452 1452 1455 1455 1455 1455 1447 1447 1439 1439 1439 1439 1442 1442 1447 1447 1441 1441 1430 1430 1430 1430 1436 1436 1436 1436 1431 1431 1426 1426 1426 1426 1427 1427 1427 1427 1427 1427 1430 1430 1430 1430 1430 1430 1431 1431 1431 1431 1430 1430 1426 1426 1423 1423 1420 1420 1418 1418 1416 1416 1415 1415 1415 1415 1413 1413 1412 1412 1413 1413 1419 1419 1422 1422 1421 1421 1419 1419 1419 1419 1420 1420 1426 1426 1426 1426 1422 1422 1419 1419 1424 1424 1426 1426 1426 1426 1433 1433 1430 1430 1430 1430 1441 1441 1446 1446 1452 1452 1452 1452 1452 1452 1450 1450 1452 1452 1454 1454 1454 1454 1446 1446 1444 1444 1436 1436 1427 1427 1426 1426 1424 1424 1419 1419 1419 1419 1420 1420 1420 1420 1417 1417 1415 1415 1415 1415 1418 1418 1419 1419 1419 1419 1411 1411 1409 1409 1414 1414 1414 1414 1418 1418 1418 1418 1418 1418 1417 1417 1417 1417 1419 1419 1419 1419 1416 1416 1416 1416 1421 1421 1422 1422 1422 1422 1420 1420 1420 1420 1420 1420 1422 1422 1421 1421 1415 1415 1412 1412 1418 1418 1420 1420 1422 1422 1423 1423 1424 1424 1426 1426 1430 1430 1441 1441 1450 1450 1459 1459 1457 1457 1454 1454 1446 1446 1434 1434 1426 1426 1423 1423 1420 1420 1421 1421 1423 1423 1420 1420 1418 1418 1422 1422 1426 1426 1426 1426 1424 1424 1430 1430 1440 1440 1450 1450 1449 1449 1449 1449 1449 1449 1444 1444 1444 1444 1440 1440 1431 1431 1431 1431 1442 1442 1447 1447 1442 1442 1444 1444 1453 1453 1454 1454 1449 1449 1446 1446 1446 1446 1447 1447 1449 1449 1446 1446 1441 1441 1441 1441 1447 1447 1447 1447 1427 1427 1419 1419 1417 1417 1412 1412 1405 1405 1392 1392 1385 1385 1363 1363 1363 1363 1363 1363 1367 1367 1405 1405 1417 1417 1426 1426 1437 1437 1437 1437 1438 1438 1426 1426 1417 1417 1417 1417 1423 1423 1426 1426 1434 1434 1452 1452 1455 1455 1465 1465 1457 1457 1447 1447 1454 1454 1452 1452 1450 1450 1450 1450 1450 1450 1453 1453 1475 1475 1502 1502 1509 1509 1510 1510 1513 1513 1507 1507 1502 1502 1497 1497 1486 1486 1469 1469 1440 1440 1424 1424 1423 1423
1386 1386 1388 1388 1388 1388 1388 1388 1385 1385 1385 1385 1392 1392 1393 1393 1395 1395 1394 1394 1392 1392 1390 1390 1388 1388 1388 1388 1389 1389 1390 1390 1391 1391 1396 1396 1399 1399 1401 1401 1404 1404 1404 1404 1398 1398 1387 1387 1382 1382 1374 1374 1374 1374 1374 1374 1374 1374 1374 1374 1380 1380 1385 1385 1388 1388 1392 1392 1392 1392 1392 1392 1403 1403 1403 1403 1396 1396 1394 1394 1394 1394 1392 1392 1388 1388 1380 1380 1380 1380 1383 1383 1383 1383 1378 1378 1378 1378 1378 1378 1382 1382 1382 1382 1375 1375 1375 1375 1370 1370 1370 1370 1379 1379 1379 1379 1377 1377 1377 1377 1380 1380 1382 1382 1383 1383 1380 1380 1380 1380 1384 1384 1389 1389 1396 1396 1398 1398 1397 1397 1397 1397 1399 1399 1393 1393 1389 1389 1378 1378 1377 1377 1373 1373 1370 1370 1371 1371 1374 1374 1373 1373 1366 1366 1361 1361 1359 1359 1358 1358 1358 1358 1357 1357 1352 1352 1355 1355 1361 1361 1364 1364 1363 1363 1359 1359 1363 1363 1364 1364 1364 1364 1363 1363 1364 1364 1364 1364 1386 1386 1427 1427 1426 1426 1413 1413 1410 1410 1407 1407 1407 1407 1407 1407 1400 1400 1400 1400 1408 1408 1418 1418 1426 1426 1424 1424 1420 1420 1424 1424 1426 1426 1423 1423 1423 1423 1423 1423 1423 1423 1426 1426 1436 1436 1437 1437 1438 1438 1437 1437 1433 1433 1427 1427 1426 1426 1427 1427 1430 1430 1420 1420 1403 1403 1401 1401 1400 1400 1402 1402 1402 1402 1399 1399 1398 1398 1399 1399 1403 1403 1404 1404 1410 1410 1410 1410 1417 1417 1417 1417 1417 1417 1409 1409 1405 1405 1404 1404 1404 1404 1396 1396 1393 1393 1393 1393 1396 1396 1397 1397 1397 1397 1397 1397 1404 1404 1407 1407 1407 1407 1407 1407 1406 1406 1408 1408 1411 1411 1406 1406 1397 1397 1395 1395 1402 1402 1402 1402 1402 1402 1402 1402 1395 1395 1398 1398 1404 1404 1422 1422 1426 1426 1430 1430 1430 1430 1427 1427 1427 1427 1427 1427 1420 1420 1413 1413 1409 1409 1404 1404 1400 1400 1400 1400 1397 1397 1395 1395 1398 1398 1398 1398 1395 1395 1395 1395 1396 1396 1397 1397 1398 1398 1396 1396 1391 1391 1386 1386 1385 1385 1388 1388 1390 1390 1392 1392 1396 1396 1396 1396 1395 1395 1390 1390 1390 1390 1394 1394 1394 1394 1391 1391 1391 1391 1401 1401 1408 1408 1408 1408 1405 1405 1405 1405 1408 1408 1406 1406 1398 1398 1391 1391 1395 1395 1404 1404 1408 1408 1412 1412 1413 1413 1417 1417 1422 1422 1430 1430 1434 1434 1434 1434 1433 1433 1426 1426 1414 1414 1392 1392 1392 1392 1392 1392 1392 1392 1392 1392 1395 1395 1395 1395 1406 1406 1408 1408 1414 1414 1414 1414 1409 1409 1412 1412 1427 1427 1437 1437 1446 1446 1447 1447 1442 1442 1441 1441 1441 1441 1433 1433 1421 1421 1415 1415 1419 1419 1420 1420 1420 1420 1420 1420 1424 1424 1424 1424 1427 1427 1431 1431 1434 1434 1437 1437 1438 1438 1433 1433 1424 1424 1423 1423 1423 1423 1416 1416 1395 1395 1383 1383 1374 1374 1362 1362 1358 1358 1358 1358 1358 1358 1354 1354 1353 1353 1354 1354 1354 1354 1361 1361 1373 1373 1398 1398 1405 1405 1410 1410 1414 1414 1414 1414 1414 1414 1417 1417 1417 1417 1419 1419 1421 1421 1426 1426 1426 1426 1434 1434 1427 1427 1426 1426 1427 1427 1434 1434 1434 1434 1434 1434 1439 1439 1442 1442 1450 1450 1460 1460 1474 1474 1483 1483 1494 1494 1488 1488 1480 1480 1466 1466 1446 1446 1430 1430 1422 1422 1414 1414 1409 1409
1386 1386 1388 1388 1388 1388 1388 1388 1385 1385 1385 1385 1392 1392 1393 1393 1395 1395 1394 1394 1392 1392 1390 1390 1388 1388 1388 1388 1389 1389 1390 1390 1391 1391 1396 1396 1399 1399 1401 1401 1404 1404 1404 1404 1398 1398 1387 1387 1382 1382 1374 1374 1374 1374 1374 1374 1374 1374 1374 1374 1380 1380 1385 1385 1388 1388 1392 1392 1392 1392 1392 1392 1403 1403 1403 1403 1396 1396 1394 1394 1394 1394 1392 1392 1388 1388 1380 1380 1380 1380 1383 1383 1383 1383 1378 1378 1378 1378 1378 1378 1382 1382 1382 1382 1375 1375 1375 1375 1370 1370 1370 1370 1379 1379 1379 1379 1377 1377 1377 1377 1380 1380 1382 1382 1383 1383 1380 1380 1380 1380 1384 1384 1389 1389 1396 1396 1398 1398 1397 1397 1397 1397 1399 1399 1393 1393 1389 1389 1378 1378 1377 1377 1373 1373 1370 1370 1371 1371 1374 1374 1373 1373 1366 1366 1361 1361 1359 1359 1358 1358 1358 1358 1357 1357 1352 1352 1355 1355 1361 1361 1364 1364 1363 1363 1359 1359 1363 1363 1364 1364 1364 1364 1363 1363 1364 1364 1364 1364 1386 1386 1427 1427 1426 1426 1413 1413 1410 1410 1407 1407 1407 1407 1407 1407 1400 1400 1400 1400 1408 1408 1418 1418 1426 1426 1424 1424 1420 1420 1424 1424 1426 1426 1423 1423 1423 1423 1423 1423 1423 1423 1426 1426 1436 1436 1437 1437 1438 1438 1437 1437 1433 1433 1427 1427 1426 1426 1427 1427 1430 1430 1420 1420 1403 1403 1401 1401 1400 1400 1402 1402 1402 1402 1399 1399 1398 1398 1399 1399 1403 1403 1404 1404 1410 1410 1410 1410 1417 1417 1417 1417 1417 1417 1409 1409 1405 1405 1404 1404 1404 1404 1396 1396 1393 1393 1393 1393 1396 1396 1397 1397 1397 1397 1397 1397 1404 1404 1407 1407 1407 1407 1407 1407 1406 1406 1408 1408 1411 1411 1406 1406 1397 1397 1395 1395 1402 1402 1402 1402 1402 1402 1402 1402 1395 1395 1398 1398 1404 1404 1422 1422 1426 1426 1430 1430 1430 1430 1427 1427 1427 1427 1427 1427 1420 1420 1413 1413 1409 1409 1404 1404 1400 1400 1400 1400 1397 1397 1395 1395 1398 1398 1398 1398 1395 1395 1395 1395 1396 1396 1397 1397 1398 1398 1396 1396 1391 1391 1386 1386 1385 1385 1388 1388 1390 1390 1392 1392 1396 1396 1396 1396 1395 1395 1390 1390 1390 1390 1394 1394 1394 1394 1391 1391 1391 1391 1401 1401 1408 1408 1408 1408 1405 1405 1405 1405 1408 1408 1406 1406 1398 1398 1391 1391 1395 1395 1404 1404 1408 1408 1412 1412 1413 1413 1417 1417 1422 1422 1430 1430 1434 1434 1434 1434 1433 1433 1426 1426 1414 1414 1392 1392 1392 1392 1392 1392 1392 1392 1392 1392 1395 1395 1395 1395 1406 1406 1408 1408 1414 1414 1414 1414 1409 1409 1412 1412 1427 1427 1437 1437 1446 1446 1447 1447 1442 1442 1441 1441 1441 1441 1433 1433 1421 1421 1415 1415 1419 1419 1420 1420 1420 1420 1420 1420 1424 1424 1424 1424 1427 1427 1431 1431 1434 1434 1437 1437 1438 1438 1433 1433 1424 1424 1423 1423 1423 1423 1416 1416 1395 1395 1383 1383 1374 1374 1362 1362 1358 1358 1358 1358 1358 1358 1354 1354 1353 1353 1354 1354 1354 1354 1361 1361 1373 1373 1398 1398 1405 1405 1410 1410 1414 1414 1414 1414 1414 1414 1417 1417 1417 1417 1419 1419 1421 1421 1426 1426 1426 1426 1434 1434 1427 1427 1426 1426 1427 1427 1434 1434 1434 1434 1434 1434 1439 1439 1442 1442 1450 1450 1460 1460 1474 1474 1483 1483 1494 1494 1488 1488 1480 1480 1466 1466 1446 1446 1430 1430 1422 1422 1414 1414 1409 1409
1374 1374 1374 1374 1375 1375 1369 1369 1364 1364 1360 1360 1363 1363 1363 1363 1369 1369 1369 1369 1370 1370 1371 1371 1374 1374 1379 1379 1383 1383 1384 1384 1386 1386 1388 1388 1392 1392 1389 1389 1387 1387 1383 1383 1369 1369 1361 1361 1359 1359 1353 1353 1353 1353 1353 1353 1355 1355 1355 1355 1363 1363 1370 1370 1370 1370 1373 1373 1375 1375 1377 1377 1378 1378 1378 1378 1374 1374 1371 1371 1371 1371 1368 1368 1367 1367 1361 1361 1355 1355 1355 1355 1355 1355 1357 1357 1358 1358 1364 1364 1366 1366 1366 1366 1364 1364 1359 1359 1354 1354 1354 1354 1358 1358 1360 1360 1360 1360 1361 1361 1364 1364 1366 1366 1369 1369 1366 1366 1363 1363 1374 1374 1377 1377 1378 1378 1379 1379 1379 1379 1378 1378 1378 1378 1370 1370 1361 1361 1361 1361 1362 1362 1362 1362 1359 1359 1361 1361 1364 1364 1364 1364 1360 1360 1355 1355 1352 1352 1350 1350 1350 1350 1347 1347 1346 1346 1347 1347 1349 1349 1352 1352 1350 1350 1348 1348 1350 1350 1350 1350 1350 1350 1347 1347 1346 1346 1346 1346 1351 1351 1352 1352 1353 1353 1358 1358 1360 1360 1361 1361 1366 1366 1366 1366 1364 1364 1366 1366 1369 1369 1370 1370 1373 1373 1373 1373 1370 1370 1370 1370 1382 1382 1382 1382 1382 1382 1378 1378 1371 1371 1369 1369 1390 1390 1407 1407 1423 1423 1426 1426 1414 1414 1410 1410 1410 1410 1413 1413 1404 1404 1388 1388 1378 1378 1375 1375 1375 1375 1378 1378 1382 1382 1382 1382 1380 1380 1384 1384 1385 1385 1386 1386 1392 1392 1393 1393 1384 1384 1378 1378 1375 1375 1375 1375 1373 1373 1369 1369 1369 1369 1367 1367 1367 1367 1369 1369 1371 1371 1375 1375 1374 1374 1371 1371 1370 1370 1370 1370 1375 1375 1375 1375 1374 1374 1364 1364 1364 1364 1375 1375 1370 1370 1368 1368 1368 1368 1374 1374 1369 1369 1368 1368 1364 1364 1364 1364 1368 1368 1371 1371 1371 1371 1371 1371 1393 1393 1395 1395 1390 1390 1378 1378 1374 1374 1370 1370 1370 1370 1370 1370 1367 1367 1367 1367 1370 1370 1371 1371 1378 1378 1378 1378 1378 1378 1378 1378 1375 1375 1374 1374 1374 1374 1373 1373 1366 1366 1366 1366 1364 1364 1361 1361 1359 1359 1358 1358 1358 1358 1358 1358 1354 1354 1352 1352 1352 1352 1354 1354 1364 1364 1364 1364 1364 1364 1374 1374 1388 1388 1393 1393 1394 1394 1392 1392 1392 1392 1390 1390 1380 1380 1378 1378 1378 1378 1382 1382 1386 1386 1393 1393 1394 1394 1404 1404 1411 1411 1418 1418 1423 1423 1427 1427 1416 1416 1399 1399 1379 1379 1368 1368 1371 1371 1378 1378 1382 1382 1382 1382 1382 1382 1384 1384 1390 1390 1393 1393 1397 1397 1393 1393 1382 1382 1382 1382 1390 1390 1406 1406 1430 1430 1434 1434 1434 1434 1430 1430 1426 1426 1413 1413 1398 1398 1384 1384 1385 1385 1386 1386 1389 1389 1395 1395 1407 1407 1409 1409 1412 1412 1421 1421 1422 1422 1426 1426 1422 1422 1417 1417 1403 1403 1389 1389 1382 1382 1364 1364 1362 1362 1358 1358 1354 1354 1351 1351 1346 1346 1344 1344 1342 1342 1340 1340 1340 1340 1340 1340 1349 1349 1354 1354 1360 1360 1367 1367 1390 1390 1398 1398 1391 1391 1391 1391 1403 1403 1412 1412 1413 1413 1415 1415 1415 1415 1415 1415 1417 1417 1418 1418 1417 1417 1418 1418 1423 1423 1424 1424 1423 1423 1426 1426 1439 1439 1439 1439 1436 1436 1444 1444 1458 1458 1468 1468 1469 1469 1462 1462 1444 1444 1438 1438 1427 1427 1420 1420 1414 1414 1408 1408 1406 1406
1374 1374 1374 1374 1375 1375 1369 1369 1364 1364 1360 1360 1363 1363 1363 1363 1369 1369 1369 1369 1370 1370 1371 1371 1374 1374 1379 1379 1383 1383 1384 1384 1386 1386 1388 1388 1392 1392 1389 1389 1387 1387 1383 1383 1369 1369 1361 1361 1359 1359 1353 1353 1353 1353 1353 1353 1355 1355 1355 1355 1363 1363 1370 1370 1370 1370 1373 1373 1375 1375 1377 1377 1378 1378 1378 1378 1374 1374 1371 1371 1371 1371 1368 1368 1367 1367 1361 1361 1355 1355 1355 1355 1355 1355 1357 1357 1358 1358 1364 1364 1366 1366 1366 1366 1364 1364 1359 1359 1354 1354 1354 1354 1358 1358 1360 1360 1360 1360 1361 1361 1364 1364 1366 1366 1369 1369 1366 1366 1363 1363 1374 1374 1377 1377 1378 1378 1379 1379 1379 1379 1378 1378 1378 1378 1370 1370 1361 1361 1361 1361 1362 1362 1362 1362 1359 1359 1361 1361 1364 1364 1364 1364 1360 1360 1355 1355 1352 1352 1350 1350 1350 1350 1347 1347 1346 1346 1347 1347 1349 1349 1352 1352 1350 1350 1348 1348 1350 1350 1350 1350 1350 1350 1347 1347 1346 1346 1346 1346 1351 1351 1352 1352 1353 1353 1358 1358 1360 1360 1361 1361 1366 1366 1366 1366 1364 1364 1366 1366 1369 1369 1370 1370 1373 1373 1373 1373 1370 1370 1370 1370 1382 1382 1382 1382 1382 1382 1378 1378 1371 1371 1369 1369 1390 1390 1407 1407 1423 1423 1426 1426 1414 1414 1410 1410 1410 1410 1413 1413 1404 1404 1388 1388 1378 1378 1375 1375 1375 1375 1378 1378 1382 1382 1382 1382 1380 1380 1384 1384 1385 1385 1386 1386 1392 1392 1393 1393 1384 1384 1378 1378 1375 1375 1375 1375 1373 1373 1369 1369 1369 1369 1367 1367 1367 1367 1369 1369 1371 1371 1375 1375 1374 1374 1371 1371 1370 1370 1370 1370 1375 1375 1375 1375 1374 1374 1364 1364 1364 1364 1375 1375 1370 1370 1368 1368 1368 1368 1374 1374 1369 1369 1368 1368 1364 1364 1364 1364 1368 1368 1371 1371 1371 1371 1371 1371 1393 1393 1395 1395 1390 1390 1378 1378 1374 1374 1370 1370 1370 1370 1370 1370 1367 1367 1367 1367 1370 1370 1371 1371 1378 1378 1378 1378 1378 1378 1378 1378 1375 1375 1374 1374 1374 1374 1373 1373 1366 1366 1366 1366 1364 1364 1361 1361 1359 1359 1358 1358 1358 1358 1358 1358 1354 1354 1352 1352 1352 1352 1354 1354 1364 1364 1364 1364 1364 1364 1374 1374 1388 1388 1393 1393 1394 1394 1392 1392 1392 1392 1390 1390 1380 1380 1378 1378 1378 1378 1382 1382 1386 1386 1393 1393 1394 1394 1404 1404 1411 1411 1418 1418 1423 1423 1427 1427 1416 1416 1399 1399 1379 1379 1368 1368 1371 1371 1378 1378 1382 1382 1382 1382 1382 1382 1384 1384 1390 1390 1393 1393 1397 1397 1393 1393 1382 1382 1382 1382 1390 1390 1406 1406 1430 1430 1434 1434 1434 1434 1430 1430 1426 1426 1413 1413 1398 1398 1384 1384 1385 1385 1386 1386 1389 1389 1395 1395 1407 1407 1409 1409 1412 1412 1421 1421 1422 1422 1426 1426 1422 1422 1417 1417 1403 1403 1389 1389 1382 1382 1364 1364 1362 1362 1358 1358 1354 1354 1351 1351 1346 1346 1344 1344 1342 1342 1340 1340 1340 1340 1340 1340 1349 1349 1354 1354 1360 1360 1367 1367 1390 1390 1398 1398 1391 1391 1391 1391 1403 1403 1412 1412 1413 1413 1415 1415 1415 1415 1415 1415 1417 1417 1418 1418 1417 1417 1418 1418 1423 1423 1424 1424 1423 1423 1426 1426 1439 1439 1439 1439 1436 1436 1444 1444 1458 1458 1468 1468 1469 1469 1462 1462 1444 1444 1438 1438 1427 1427 1420 1420 1414 1414 1408 1408 1406 1406
1358 1358 1363 1363 1363 1363 1354 1354 1346 1346 1342 1342 1342 1342 1347 1347 1354 1354 1354 1354 1354 1354 1358 1358 1360 1360 1367 1367 1369 1369 1367 1367 1368 1368 1369 1369 1367 1367 1367 1367 1364 1364 1359 1359 1348 1348 1340 1340 1335 1335 1329 1329 1329 1329 1330 1330 1330 1330 1330 1330 1330 1330 1338 1338 1339 1339 1346 1346 1349 1349 1355 1355 1357 1357 1355 1355 1353 1353 1348 1348 1346 1346 1323 1323 1321 1321 1323 1323 1323 1323 1323 1323 1322 1322 1326 1326 1332 1332 1342 1342 1346 1346 1349 1349 1346 1346 1346 1346 1344 1344 1344 1344 1347 1347 1349 1349 1349 1349 1351 1351 1354 1354 1358 1358 1358 1358 1354 1354 1351 1351 1350 1350 1349 1349 1341 1341 1338 1338 1337 1337 1326 1326 1325 1325 1318 1318 1320 1320 1326 1326 1334 1334 1340 1340 1341 1341 1346 1346 1350 1350 1350 1350 1347 1347 1343 1343 1337 1337 1337 1337 1339 1339 1338 1338 1337 1337 1336 1336 1337 1337 1336 1336 1333 1333 1332 1332 1332 1332 1333 1333 1333 1333 1332 1332 1326 1326 1330 1330 1336 1336 1339 1339 1343 1343 1347 1347 1354 1354 1354 1354 1358 1358 1358 1358 1354 1354 1357 1357 1358 1358 1358 1358 1357 1357 1357 1357 1351 1351 1353 1353 1354 1354 1353 1353 1354 1354 1351 1351 1341 1341 1334 1334 1333 1333 1330 1330 1351 1351 1354 1354 1359 1359 1360 1360 1362 1362 1364 1364 1360 1360 1349 1349 1349 1349 1348 1348 1342 1342 1358 1358 1366 1366 1366 1366 1364 1364 1364 1364 1364 1364 1366 1366 1374 1374 1368 1368 1360 1360 1358 1358 1357 1357 1357 1357 1357 1357 1355 1355 1355 1355 1355 1355 1357 1357 1359 1359 1364 1364 1366 1366 1366 1366 1364 1364 1362 1362 1362 1362 1363 1363 1363 1363 1360 1360 1358 1358 1358 1358 1358 1358 1354 1354 1352 1352 1352 1352 1354 1354 1358 1358 1357 1357 1355 1355 1355 1355 1355 1355 1359 1359 1358 1358 1358 1358 1360 1360 1363 1363 1360 1360 1354 1354 1353 1353 1350 1350 1351 1351 1351 1351 1351 1351 1353 1353 1358 1358 1361 1361 1364 1364 1370 1370 1370 1370 1370 1370 1369 1369 1368 1368 1364 1364 1359 1359 1355 1355 1354 1354 1354 1354 1352 1352 1346 1346 1344 1344 1346 1346 1344 1344 1339 1339 1332 1332 1328 1328 1326 1326 1334 1334 1343 1343 1343 1343 1354 1354 1364 1364 1364 1364 1362 1362 1362 1362 1358 1358 1359 1359 1359 1359 1357 1357 1354 1354 1358 1358 1361 1361 1364 1364 1370 1370 1370 1370 1373 1373 1371 1371 1373 1373 1371 1371 1368 1368 1362 1362 1358 1358 1354 1354 1358 1358 1367 1367 1370 1370 1374 1374 1374 1374 1374 1374 1374 1374 1378 1378 1374 1374 1368 1368 1363 1363 1363 1363 1364 1364 1368 1368 1368 1368 1371 1371 1378 1378 1386 1386 1386 1386 1380 1380 1374 1374 1369 1369 1371 1371 1374 1374 1379 1379 1380 1380 1386 1386 1386 1386 1390 1390 1386 1386 1388 1388 1382 1382 1375 1375 1371 1371 1368 1368 1362 1362 1355 1355 1354 1354 1353 1353 1353 1353 1348 1348 1341 1341 1337 1337 1334 1334 1332 1332 1330 1330 1330 1330 1330 1330 1336 1336 1339 1339 1340 1340 1342 1342 1350 1350 1351 1351 1355 1355 1358 1358 1364 1364 1383 1383 1391 1391 1393 1393 1395 1395 1397 1397 1405 1405 1406 1406 1405 1405 1410 1410 1417 1417 1419 1419 1415 1415 1419 1419 1403 1403 1349 1349 1423 1423 1434 1434 1443 1443 1446 1446 1446 1446 1442 1442 1426 1426 1422 1422 1415 1415 1410 1410 1403 1403 1395 1395 1390 1390
1358 1358 1363 1363 1363 1363 1354 1354 1346 1346 1342 1342 1342 1342 1347 1347 1354 1354 1354 1354 1354 1354 1358 1358 1360 1360 1367 1367 1369 1369 1367 1367 1368 1368 1369 1369 1367 1367 1367 1367 1364 1364 1359 1359 1348 1348 1340 1340 1335 1335 1329 1329 1329 1329 1330 1330 1330 1330 1330 1330 1330 1330 1338 1338 1339 1339 1346 1346 1349 1349 1355 1355 1357 1357 1355 1355 1353 1353 1348 1348 1346 1346 1323 1323 1321 1321 1323 1323 1323 1323 1323 1323 1322 1322 1326 1326 1332 1332 1342 1342 1346 1346 1349 1349 1346 1346 1346 1346 1344 1344 1344 1344 1347 1347 1349 1349 1349 1349 1351 1351 1354 1354 1358 1358 1358 1358 1354 1354 1351 1351 1350 1350 1349 1349 1341 1341 1338 1338 1337 1337 1326 1326 1325 1325 1318 1318 1320 1320 1326 1326 1334 1334 1340 1340 1341 1341 1346 1346 1350 1350 1350 1350 1347 1347 1343 1343 1337 1337 1337 1337 1339 1339 1338 1338 1337 1337 1336 1336 1337 1337 1336 1336 1333 1333 1332 1332 1332 1332 1333 1333 1333 1333 1332 1332 1326 1326 1330 1330 1336 1336 1339 1339 1343 1343 1347 1347 1354 1354 1354 1354 1358 1358 1358 1358 1354 1354 1357 1357 1358 1358 1358 1358 1357 1357 1357 1357 1351 1351 1353 1353 1354 1354 1353 1353 1354 1354 1351 1351 1341 1341 1334 1334 1333 1333 1330 1330 1351 1351 1354 1354 1359 1359 1360 1360 1362 1362 1364 1364 1360 1360 1349 1349 1349 1349 1348 1348 1342 1342 1358 1358 1366 1366 1366 1366 1364 1364 1364 1364 1364 1364 1366 1366 1374 1374 1368 1368 1360 1360 1358 1358 1357 1357 1357 1357 1357 1357 1355 1355 1355 1355 1355 1355 1357 1357 1359 1359 1364 1364 1366 1366 1366 1366 1364 1364 1362 1362 1362 1362 1363 1363 1363 1363 1360 1360 1358 1358 1358 1358 1358 1358 1354 1354 1352 1352 1352 1352 1354 1354 1358 1358 1357 1357 1355 1355 1355 1355 1355 1355 1359 1359 1358 1358 1358 1358 1360 1360 1363 1363 1360 1360 1354 1354 1353 1353 1350 1350 1351 1351 1351 1351 1351 1351 1353 1353 1358 1358 1361 1361 1364 1364 1370 1370 1370 1370 1370 1370 1369 1369 1368 1368 1364 1364 1359 1359 1355 1355 1354 1354 1354 1354 1352 1352 1346 1346 1344 1344 1346 1346 1344 1344 1339 1339 1332 1332 1328 1328 1326 1326 1334 1334 1343 1343 1343 1343 1354 1354 1364 1364 1364 1364 1362 1362 1362 1362 1358 1358 1359 1359 1359 1359 1357 1357 1354 1354 1358 1358 1361 1361 1364 1364 1370 1370 1370 1370 1373 1373 1371 1371 1373 1373 1371 1371 1368 1368 1362 1362 1358 1358 1354 1354 1358 1358 1367 1367 1370 1370 1374 1374 1374 1374 1374 1374 1374 1374 1378 1378 1374 1374 1368 1368 1363 1363 1363 1363 1364 1364 1368 1368 1368 1368 1371 1371 1378 1378 1386 1386 1386 1386 1380 1380 1374 1374 1369 1369 1371 1371 1374 1374 1379 1379 1380 1380 1386 1386 1386 1386 1390 1390 1386 1386 1388 1388 1382 1382 1375 1375 1371 1371 1368 1368 1362 1362 1355 1355 1354 1354 1353 1353 1353 1353 1348 1348 1341 1341 1337 1337 1334 1334 1332 1332 1330 1330 1330 1330 1330 1330 1336 1336 1339 1339 1340 1340 1342 1342 1350 1350 1351 1351 1355 1355 1358 1358 1364 1364 1383 1383 1391 1391 1393 1393 1395 1395 1397 1397 1405 1405 1406 1406 1405 1405 1410 1410 1417 1417 1419 1419 1415 1415 1419 1419 1403 1403 1349 1349 1423 1423 1434 1434 1443 1443 1446 1446 1446 1446 1442 1442 1426 1426 1422 1422 1415 1415 1410 1410 1403 1403 1395 1395 1390 1390
1302 1302 1302 1302 1310 1310 1312 1312 1314 1314 1315 1315 1317 1317 1328 1328 1338 1338 1340 1340 1335 1335 1332 1332 1332 1332 1334 1334 1342 1342 1329 1329 1329 1329 1330 1330 1333 1333 1340 1340 1342 1342 1338 1338 1330 1330 1325 1325 1321 1321 1315 1315 1317 1317 1318 1318 1317 1317 1317 1317 1314 1314 1317 1317 1322 1322 1323 1323 1323 1323 1323 1323 1322 1322 1322 1322 1320 1320 1315 1315 1312 1312 1306 1306 1305 1305 1301 1301 1301 1301 1299 1299 1296 1296 1294 1294 1294 1294 1298 1298 1300 1300 1308 1308 1309 1309 1312 1312 1318 1318 1325 1325 1327 1327 1329 1329 1330 1330 1332 1332 1334 1334 1337 1337 1338 1338 1333 1333 1329 1329 1327 1327 1323 1323 1317 1317 1313 1313 1311 1311 1309 1309 1303 1303 1303 1303 1303 1303 1309 1309 1317 1317 1323 1323 1323 1323 1327 1327 1333 1333 1334 1334 1330 1330 1326 1326 1321 1321 1320 1320 1319 1319 1318 1318 1314 1314 1312 1312 1313 1313 1313 1313 1312 1312 1311 1311 1311 1311 1314 1314 1315 1315 1314 1314 1311 1311 1310 1310 1314 1314 1314 1314 1314 1314 1315 1315 1322 1322 1326 1326 1347 1347 1348 1348 1346 1346 1346 1346 1346 1346 1344 1344 1342 1342 1341 1341 1338 1338 1338 1338 1338 1338 1338 1338 1328 1328 1321 1321 1314 1314 1310 1310 1304 1304 1302 1302 1302 1302 1312 1312 1323 1323 1333 1333 1339 1339 1338 1338 1334 1334 1325 1325 1322 1322 1319 1319 1314 1314 1314 1314 1320 1320 1321 1321 1327 1327 1334 1334 1334 1334 1341 1341 1346 1346 1346 1346 1334 1334 1329 1329 1327 1327 1327 1327 1327 1327 1326 1326 1326 1326 1328 1328 1330 1330 1333 1333 1342 1342 1357 1357 1358 1358 1358 1358 1352 1352 1352 1352 1353 1353 1353 1353 1348 1348 1343 1343 1343 1343 1344 1344 1343 1343 1340 1340 1340 1340 1340 1340 1344 1344 1344 1344 1342 1342 1342 1342 1344 1344 1351 1351 1351 1351 1348 1348 1348 1348 1344 1344 1339 1339 1338 1338 1337 1337 1334 1334 1334 1334 1330 1330 1328 1328 1334 1334 1335 1335 1340 1340 1346 1346 1349 1349 1348 1348 1349 1349 1349 1349 1343 1343 1342 1342 1340 1340 1336 1336 1336 1336 1338 1338 1338 1338 1332 1332 1332 1332 1333 1333 1326 1326 1322 1322 1321 1321 1318 1318 1317 1317 1320 1320 1323 1323 1323 1323 1329 1329 1342 1342 1342 1342 1340 1340 1342 1342 1344 1344 1347 1347 1348 1348 1348 1348 1348 1348 1350 1350 1352 1352 1355 1355 1360 1360 1362 1362 1363 1363 1360 1360 1358 1358 1346 1346 1339 1339 1333 1333 1333 1333 1330 1330 1330 1330 1330 1330 1342 1342 1342 1342 1342 1342 1340 1340 1328 1328 1318 1318 1309 1309 1314 1314 1330 1330 1340 1340 1340 1340 1340 1340 1340 1340 1342 1342 1341 1341 1341 1341 1330 1330 1320 1320 1329 1329 1334 1334 1347 1347 1369 1369 1370 1370 1366 1366 1369 1369 1370 1370 1373 1373 1373 1373 1370 1370 1359 1359 1357 1357 1357 1357 1357 1357 1347 1347 1346 1346 1346 1346 1346 1346 1343 1343 1336 1336 1333 1333 1329 1329 1326 1326 1323 1323 1321 1321 1319 1319 1314 1314 1314 1314 1314 1314 1308 1308 1311 1311 1314 1314 1313 1313 1319 1319 1328 1328 1339 1339 1342 1342 1358 1358 1362 1362 1375 1375 1380 1380 1394 1394 1397 1397 1399 1399 1404 1404 1417 1417 1417 1417 1403 1403 1398 1398 1403 1403 1363 1363 1349 1349 1349 1349 1347 1347 1346 1346 1420 1420 1420 1420 1420 1420 1413 1413 1403 1403 1395 1395 1390 1390 1384 1384 1382 1382
1302 1302 1302 1302 1310 1310 1312 1312 1314 1314 1315 1315 1317 1317 1328 1328 1338 1338 1340 1340 1335 1335 1332 1332 1332 1332 1334 1334 1342 1342 1329 1329 1329 1329 1330 1330 1333 1333 1340 1340 1342 1342 1338 1338 1330 1330 1325 1325 1321 1321 1315 1315 1317 1317 1318 1318 1317 1317 1317 1317 1314 1314 1317 1317 1322 1322 1323 1323 1323 1323 1323 1323 1322 1322 1322 1322 1320 1320 1315 1315 1312 1312 1306 1306 1305 1305 1301 1301 1301 1301 1299 1299 1296 1296 1294 1294 1294 1294 1298 1298 1300 1300 1308 1308 1309 1309 1312 1312 1318 1318 1325 1325 1327 1327 1329 1329 1330 1330 1332 1332 1334 1334 1337 1337 1338 1338 1333 1333 1329 1329 1327 1327 1323 1323 1317 1317 1313 1313 1311 1311 1309 1309 1303 1303 1303 1303 1303 1303 1309 1309 1317 1317 1323 1323 1323 1323 1327 1327 1333 1333 1334 1334 1330 1330 1326 1326 1321 1321 1320 1320 1319 1319 1318 1318 1314 1314 1312 1312 1313 1313 1313 1313 1312 1312 1311 1311 1311 1311 1314 1314 1315 1315 1314 1314 1311 1311 1310 1310 1314 1314 1314 1314 1314 1314 1315 1315 1322 1322 1326 1326 1347 1347 1348 1348 1346 1346 1346 1346 1346 1346 1344 1344 1342 1342 1341 1341 1338 1338 1338 1338 1338 1338 1338 1338 1328 1328 1321 1321 1314 1314 1310 1310 1304 1304 1302 1302 1302 1302 1312 1312 1323 1323 1333 1333 1339 1339 1338 1338 1334 1334 1325 1325 1322 1322 1319 1319 1314 1314 1314 1314 1320 1320 1321 1321 1327 1327 1334 1334 1334 1334 1341 1341 1346 1346 1346 1346 1334 1334 1329 1329 1327 1327 1327 1327 1327 1327 1326 1326 1326 1326 1328 1328 1330 1330 1333 1333 1342 1342 1357 1357 1358 1358 1358 1358 1352 1352 1352 1352 1353 1353 1353 1353 1348 1348 1343 1343 1343 1343 1344 1344 1343 1343 1340 1340 1340 1340 1340 1340 1344 1344 1344 1344 1342 1342 1342 1342 1344 1344 1351 1351 1351 1351 1348 1348 1348 1348 1344 1344 1339 1339 1338 1338 1337 1337 1334 1334 1334 1334 1330 1330 1328 1328 1334 1334 1335 1335 1340 1340 1346 1346 1349 1349 1348 1348 1349 1349 1349 1349 1343 1343 1342 1342 1340 1340 1336 1336 1336 1336 1338 1338 1338 1338 1332 1332 1332 1332 1333 1333 1326 1326 1322 1322 1321 1321 1318 1318 1317 1317 1320 1320 1323 1323 1323 1323 1329 1329 1342 1342 1342 1342 1340 1340 1342 1342 1344 1344 1347 1347 1348 1348 1348 1348 1348 1348 1350 1350 1352 1352 1355 1355 1360 1360 1362 1362 1363 1363 1360 1360 1358 1358 1346 1346 1339 1339 1333 1333 1333 1333 1330 1330 1330 1330 1330 1330 1342 1342 1342 1342 1342 1342 1340 1340 1328 1328 1318 1318 1309 1309 1314 1314 1330 1330 1340 1340 1340 1340 1340 1340 1340 1340 1342 1342 1341 1341 1341 1341 1330 1330 1320 1320 1329 1329 1334 1334 1347 1347 1369 1369 1370 1370 1366 1366 1369 1369 1370 1370 1373 1373 1373 1373 1370 1370 1359 1359 1357 1357 1357 1357 1357 1357 1347 1347 1346 1346 1346 1346 1346 1346 1343 1343 1336 1336 1333 1333 1329 1329 1326 1326 1323 1323 1321 1321 1319 1319 1314 1314 1314 1314 1314 1314 1308 1308 1311 1311 1314 1314 1313 1313 1319 1319 1328 1328 1339 1339 1342 1342 1358 1358 1362 1362 1375 1375 1380 1380 1394 1394 1397 1397 1399 1399 1404 1404 1417 1417 1417 1417 1403 1403 1398 1398 1403 1403 1363 1363 1349 1349 1349 1349 1347 1347 1346 1346 1420 1420 1420 1420 1420 1420 1413 1413 1403 1403 1395 1395 1390 1390 1384 1384 1382 1382
1278 1278 1278 1278 1281 1281 1289 1289 1293 1293 1296 1296 1302 1302 1305 1305 1312 1312 1312 1312 1310 1310 1303 1303 1302 1302 1297 1297 1294 1294 1294 1294 1297 1297 1298 1298 1301 1301 1306 1306 1310 1310 1310 1310 1310 1310 1306 1306 1306 1306 1309 1309 1310 1310 1310 1310 1310 1310 1308 1308 1308 1308 1309 1309 1310 1310 1314 1314 1313 1313 1312 1312 1310 1310 1310 1310 1310 1310 1305 1305 1301 1301 1296 1296 1291 1291 1286 1286 1285 1285 1282 1282 1273 1273 1273 1273 1278 1278 1281 1281 1286 1286 1290 1290 1297 1297 1300 1300 1306 1306 1305 1305 1305 1305 1305 1305 1310 1310 1310 1310 1309 1309 1305 1305 1304 1304 1309 1309 1303 1303 1302 1302 1294 1294 1293 1293 1290 1290 1289 1289 1288 1288 1287 1287 1285 1285 1285 1285 1286 1286 1300 1300 1306 1306 1308 1308 1314 1314 1320 1320 1321 1321 1318 1318 1315 1315 1312 1312 1310 1310 1308 1308 1308 1308 1304 1304 1300 1300 1302 1302 1302 1302 1301 1301 1301 1301 1304 1304 1308 1308 1309 1309 1306 1306 1303 1303 1303 1303 1306 1306 1306 1306 1299 1299 1298 1298 1300 1300 1307 1307 1314 1314 1318 1318 1318 1318 1318 1318 1325 1325 1325 1325 1321 1321 1318 1318 1314 1314 1311 1311 1311 1311 1309 1309 1301 1301 1299 1299 1300 1300 1300 1300 1297 1297 1294 1294 1297 1297 1301 1301 1310 1310 1317 1317 1318 1318 1318 1318 1318 1318 1311 1311 1311 1311 1310 1310 1310 1310 1309 1309 1310 1310 1311 1311 1315 1315 1319 1319 1322 1322 1322 1322 1325 1325 1322 1322 1318 1318 1317 1317 1315 1315 1315 1315 1317 1317 1318 1318 1319 1319 1320 1320 1322 1322 1322 1322 1323 1323 1327 1327 1328 1328 1328 1328 1322 1322 1319 1319 1319 1319 1319 1319 1319 1319 1317 1317 1317 1317 1319 1319 1322 1322 1323 1323 1322 1322 1320 1320 1322 1322 1325 1325 1325 1325 1323 1323 1319 1319 1326 1326 1326 1326 1325 1325 1320 1320 1317 1317 1317 1317 1325 1325 1325 1325 1325 1325 1322 1322 1318 1318 1318 1318 1320 1320 1320 1320 1320 1320 1322 1322 1322 1322 1322 1322 1326 1326 1328 1328 1326 1326 1323 1323 1322 1322 1320 1320 1318 1318 1322 1322 1322 1322 1317 1317 1317 1317 1314 1314 1311 1311 1309 1309 1308 1308 1304 1304 1303 1303 1306 1306 1309 1309 1309 1309 1312 1312 1318 1318 1322 1322 1325 1325 1325 1325 1326 1326 1326 1326 1333 1333 1329 1329 1327 1327 1325 1325 1325 1325 1343 1343 1347 1347 1352 1352 1352 1352 1351 1351 1342 1342 1323 1323 1323 1323 1323 1323 1319 1319 1318 1318 1318 1318 1314 1314 1310 1310 1306 1306 1306 1306 1306 1306 1302 1302 1298 1298 1298 1298 1299 1299 1301 1301 1310 1310 1315 1315 1315 1315 1315 1315 1320 1320 1314 1314 1306 1306 1305 1305 1305 1305 1306 1306 1306 1306 1306 1306 1319 1319 1328 1328 1329 1329 1336 1336 1340 1340 1344 1344 1347 1347 1343 1343 1337 1337 1328 1328 1327 1327 1320 1320 1318 1318 1318 1318 1319 1319 1328 1328 1327 1327 1323 1323 1320 1320 1320 1320 1317 1317 1314 1314 1311 1311 1309 1309 1304 1304 1304 1304 1302 1302 1300 1300 1300 1300 1303 1303 1303 1303 1303 1303 1309 1309 1313 1313 1315 1315 1320 1320 1342 1342 1351 1351 1351 1351 1371 1371 1387 1387 1394 1394 1340 1340 1346 1346 1306 1306 1389 1389 1346 1346 1344 1344 1337 1337 1337 1337 1337 1337 1339 1339 1342 1342 1344 1344 1344 1344 1341 1341 1355 1355 1370 1370 1374 1374 1371 1371 1367 1367 1370 1370
1278 1278 1278 1278 1281 1281 1289 1289 1293 1293 1296 1296 1302 1302 1305 1305 1312 1312 1312 1312 1310 1310 1303 1303 1302 1302 1297 1297 1294 1294 1294 1294 1297 1297 1298 1298 1301 1301 1306 1306 1310 1310 1310 1310 1310 1310 1306 1306 1306 1306 1309 1309 1310 1310 1310 1310 1310 1310 1308 1308 1308 1308 1309 1309 1310 1310 1314 1314 1313 1313 1312 1312 1310 1310 1310 1310 1310 1310 1305 1305 1301 1301 1296 1296 1291 1291 1286 1286 1285 1285 1282 1282 1273 1273 1273 1273 1278 1278 1281 1281 1286 1286 1290 1290 1297 1297 1300 1300 1306 1306 1305 1305 1305 1305 1305 1305 1310 1310 1310 1310 1309 1309 1305 1305 1304 1304 1309 1309 1303 1303 1302 1302 1294 1294 1293 1293 1290 1290 1289 1289 1288 1288 1287 1287 1285 1285 1285 1285 1286 1286 1300 1300 1306 1306 1308 1308 1314 1314 1320 1320 1321 1321 1318 1318 1315 1315 1312 1312 1310 1310 1308 1308 1308 1308 1304 1304 1300 1300 1302 1302 1302 1302 1301 1301 1301 1301 1304 1304 1308 1308 1309 1309 1306 1306 1303 1303 1303 1303 1306 1306 1306 1306 1299 1299 1298 1298 1300 1300 1307 1307 1314 1314 1318 1318 1318 1318 1318 1318 1325 1325 1325 1325 1321 1321 1318 1318 1314 1314 1311 1311 1311 1311 1309 1309 1301 1301 1299 1299 1300 1300 1300 1300 1297 1297 1294 1294 1297 1297 1301 1301 1310 1310 1317 1317 1318 1318 1318 1318 1318 1318 1311 1311 1311 1311 1310 1310 1310 1310 1309 1309 1310 1310 1311 1311 1315 1315 1319 1319 1322 1322 1322 1322 1325 1325 1322 1322 1318 1318 1317 1317 1315 1315 1315 1315 1317 1317 1318 1318 1319 1319 1320 1320 1322 1322 1322 1322 1323 1323 1327 1327 1328 1328 1328 1328 1322 1322 1319 1319 1319 1319 1319 1319 1319 1319 1317 1317 1317 1317 1319 1319 1322 1322 1323 1323 1322 1322 1320 1320 1322 1322 1325 1325 1325 1325 1323 1323 1319 1319 1326 1326 1326 1326 1325 1325 1320 1320 1317 1317 1317 1317 1325 1325 1325 1325 1325 1325 1322 1322 1318 1318 1318 1318 1320 1320 1320 1320 1320 1320 1322 1322 1322 1322 1322 1322 1326 1326 1328 1328 1326 1326 1323 1323 1322 1322 1320 1320 1318 1318 1322 1322 1322 1322 1317 1317 1317 1317 1314 1314 1311 1311 1309 1309 1308 1308 1304 1304 1303 1303 1306 1306 1309 1309 1309 1309 1312 1312 1318 1318 1322 1322 1325 1325 1325 1325 1326 1326 1326 1326 1333 1333 1329 1329 1327 1327 1325 1325 1325 1325 1343 1343 1347 1347 1352 1352 1352 1352 1351 1351 1342 1342 1323 1323 1323 1323 1323 1323 1319 1319 1318 1318 1318 1318 1314 1314 1310 1310 1306 1306 1306 1306 1306 1306 1302 1302 1298 1298 1298 1298 1299 1299 1301 1301 1310 1310 1315 1315 1315 1315 1315 1315 1320 1320 1314 1314 1306 1306 1305 1305 1305 1305 1306 1306 1306 1306 1306 1306 1319 1319 1328 1328 1329 1329 1336 1336 1340 1340 1344 1344 1347 1347 1343 1343 1337 1337 1328 1328 1327 1327 1320 1320 1318 1318 1318 1318 1319 1319 1328 1328 1327 1327 1323 1323 1320 1320 1320 1320 1317 1317 1314 1314 1311 1311 1309 1309 1304 1304 1304 1304 1302 1302 1300 1300 1300 1300 1303 1303 1303 1303 1303 1303 1309 1309 1313 1313 1315 1315 1320 1320 1342 1342 1351 1351 1351 1351 1371 1371 1387 1387 1394 1394 1340 1340 1346 1346 1306 1306 1389 1389 1346 1346 1344 1344 1337 1337 1337 1337 1337 1337 1339 1339 1342 1342 1344 1344 1344 1344 1341 1341 1355 1355 1370 1370 1374 1374 1371 1371 1367 1367 1370 1370
1266 1266 1266 1266 1263 1263 1269 1269 1274 1274 1276 1276 1287 1287 1292 1292 1297 1297 1296 1296 1292 1292 1283 1283 1274 1274 1265 1265 1253 1253 1253 1253 1265 1265 1280 1280 1281 1281 1281 1281 1286 1286 1288 1288 1289 1289 1290 1290 1292 1292 1292 1292 1298 1298 1298 1298 1294 1294 1294 1294 1294 1294 1296 1296 1298 1298 1298 1298 1298 1298 1298 1298 1297 1297 1294 1294 1284 1284 1277 1277 1268 1268 1259 1259 1253 1253 1250 1250 1250 1250 1252 1252 1252 1252 1254 1254 1258 1258 1259 1259 1270 1270 1278 1278 1283 1283 1290 1290 1292 1292 1292 1292 1293 1293 1294 1294 1296 1296 1294 1294 1292 1292 1288 1288 1288 1288 1293 1293 1289 1289 1282 1282 1276 1276 1276 1276 1276 1276 1273 1273 1271 1271 1270 1270 1269 1269 1269 1269 1268 1268 1268 1268 1282 1282 1286 1286 1294 1294 1298 1298 1299 1299 1296 1296 1294 1294 1294 1294 1292 1292 1290 1290 1290 1290 1290 1290 1283 1283 1283 1283 1278 1278 1278 1278 1278 1278 1282 1282 1294 1294 1301 1301 1298 1298 1293 1293 1293 1293 1299 1299 1294 1294 1289 1289 1286 1286 1286 1286 1292 1292 1302 1302 1306 1306 1306 1306 1305 1305 1309 1309 1310 1310 1308 1308 1306 1306 1305 1305 1298 1298 1294 1294 1292 1292 1284 1284 1282 1282 1283 1283 1283 1283 1282 1282 1278 1278 1280 1280 1285 1285 1290 1290 1290 1290 1290 1290 1290 1290 1290 1290 1289 1289 1286 1286 1282 1282 1278 1278 1278 1278 1280 1280 1281 1281 1286 1286 1289 1289 1284 1284 1283 1283 1283 1283 1286 1286 1288 1288 1293 1293 1301 1301 1301 1301 1306 1306 1311 1311 1313 1313 1314 1314 1317 1317 1317 1317 1317 1317 1318 1318 1319 1319 1317 1317 1312 1312 1308 1308 1310 1310 1311 1311 1313 1313 1312 1312 1311 1311 1312 1312 1317 1317 1319 1319 1318 1318 1318 1318 1318 1318 1320 1320 1319 1319 1315 1315 1311 1311 1310 1310 1310 1310 1308 1308 1304 1304 1301 1301 1302 1302 1308 1308 1312 1312 1312 1312 1312 1312 1310 1310 1310 1310 1310 1310 1309 1309 1306 1306 1306 1306 1306 1306 1304 1304 1304 1304 1310 1310 1310 1310 1309 1309 1308 1308 1306 1306 1304 1304 1305 1305 1305 1305 1301 1301 1301 1301 1301 1301 1298 1298 1298 1298 1298 1298 1293 1293 1293 1293 1297 1297 1298 1298 1298 1298 1298 1298 1299 1299 1300 1300 1308 1308 1308 1308 1308 1308 1308 1308 1312 1312 1312 1312 1308 1308 1294 1294 1280 1280 1277 1277 1277 1277 1275 1275 1274 1274 1264 1264 1260 1260 1253 1253 1259 1259 1276 1276 1287 1287 1294 1294 1302 1302 1305 1305 1301 1301 1297 1297 1293 1293 1292 1292 1290 1290 1288 1288 1286 1286 1286 1286 1289 1289 1293 1293 1292 1292 1286 1286 1286 1286 1286 1286 1292 1292 1292 1292 1291 1291 1292 1292 1292 1292 1291 1291 1294 1294 1300 1300 1302 1302 1305 1305 1309 1309 1306 1306 1306 1306 1315 1315 1323 1323 1318 1318 1317 1317 1314 1314 1309 1309 1306 1306 1308 1308 1306 1306 1306 1306 1303 1303 1301 1301 1298 1298 1296 1296 1291 1291 1291 1291 1294 1294 1294 1294 1289 1289 1286 1286 1285 1285 1285 1285 1282 1282 1278 1278 1278 1278 1281 1281 1275 1275 1264 1264 1260 1260 1263 1263 1263 1263 1258 1258 1271 1271 1280 1280 1282 1282 1352 1352 1315 1315 1323 1323 1306 1306 1306 1306 1309 1309 1315 1315 1317 1317 1323 1323 1330 1330 1332 1332 1340 1340 1342 1342 1338 1338 1329 1329 1335 1335 1349 1349 1360 1360 1354 1354 1354 1354 1361 1361
1266 1266 1266 1266 1263 1263 1269 1269 1274 1274 1276 1276 1287 1287 1292 1292 1297 1297 1296 1296 1292 1292 1283 1283 1274 1274 1265 1265 1253 1253 1253 1253 1265 1265 1280 1280 1281 1281 1281 1281 1286 1286 1288 1288 1289 1289 1290 1290 1292 1292 1292 1292 1298 1298 1298 1298 1294 1294 1294 1294 1294 1294 1296 1296 1298 1298 1298 1298 1298 1298 1298 1298 1297 1297 1294 1294 1284 1284 1277 1277 1268 1268 1259 1259 1253 1253 1250 1250 1250 1250 1252 1252 1252 1252 1254 1254 1258 1258 1259 1259 1270 1270 1278 1278 1283 1283 1290 1290 1292 1292 1292 1292 1293 1293 1294 1294 1296 1296 1294 1294 1292 1292 1288 1288 1288 1288 1293 1293 1289 1289 1282 1282 1276 1276 1276 1276 1276 1276 1273 1273 1271 1271 1270 1270 1269 1269 1269 1269 1268 1268 1268 1268 1282 1282 1286 1286 1294 1294 1298 1298 1299 1299 1296 1296 1294 1294 1294 1294 1292 1292 1290 1290 1290 1290 1290 1290 1283 1283 1283 1283 1278 1278 1278 1278 1278 1278 1282 1282 1294 1294 1301 1301 1298 1298 1293 1293 1293 1293 1299 1299 1294 1294 1289 1289 1286 1286 1286 1286 1292 1292 1302 1302 1306 1306 1306 1306 1305 1305 1309 1309 1310 1310 1308 1308 1306 1306 1305 1305 1298 1298 1294 1294 1292 1292 1284 1284 1282 1282 1283 1283 1283 1283 1282 1282 1278 1278 1280 1280 1285 1285 1290 1290 1290 1290 1290 1290 1290 1290 1290 1290 1289 1289 1286 1286 1282 1282 1278 1278 1278 1278 1280 1280 1281 1281 1286 1286 1289 1289 1284 1284 1283 1283 1283 1283 1286 1286 1288 1288 1293 1293 1301 1301 1301 1301 1306 1306 1311 1311 1313 1313 1314 1314 1317 1317 1317 1317 1317 1317 1318 1318 1319 1319 1317 1317 1312 1312 1308 1308 1310 1310 1311 1311 1313 1313 1312 1312 1311 1311 1312 1312 1317 1317 1319 1319 1318 1318 1318 1318 1318 1318 1320 1320 1319 1319 1315 1315 1311 1311 1310 1310 1310 1310 1308 1308 1304 1304 1301 1301 1302 1302 1308 1308 1312 1312 1312 1312 1312 1312 1310 1310 1310 1310 1310 1310 1309 1309 1306 1306 1306 1306 1306 1306 1304 1304 1304 1304 1310 1310 1310 1310 1309 1309 1308 1308 1306 1306 1304 1304 1305 1305 1305 1305 1301 1301 1301 1301 1301 1301 1298 1298 1298 1298 1298 1298 1293 1293 1293 1293 1297 1297 1298 1298 1298 1298 1298 1298 1299 1299 1300 1300 1308 1308 1308 1308 1308 1308 1308 1308 1312 1312 1312 1312 1308 1308 1294 1294 1280 1280 1277 1277 1277 1277 1275 1275 1274 1274 1264 1264 1260 1260 1253 1253 1259 1259 1276 1276 1287 1287 1294 1294 1302 1302 1305 1305 1301 1301 1297 1297 1293 1293 1292 1292 1290 1290 1288 1288 1286 1286 1286 1286 1289 1289 1293 1293 1292 1292 1286 1286 1286 1286 1286 1286 1292 1292 1292 1292 1291 1291 1292 1292 1292 1292 1291 1291 1294 1294 1300 1300 1302 1302 1305 1305 1309 1309 1306 1306 1306 1306 1315 1315 1323 1323 1318 1318 1317 1317 1314 1314 1309 1309 1306 1306 1308 1308 1306 1306 1306 1306 1303 1303 1301 1301 1298 1298 1296 1296 1291 1291 1291 1291 1294 1294 1294 1294 1289 1289 1286 1286 1285 1285 1285 1285 1282 1282 1278 1278 1278 1278 1281 1281 1275 1275 1264 1264 1260 1260 1263 1263 1263 1263 1258 1258 1271 1271 1280 1280 1282 1282 1352 1352 1315 1315 1323 1323 1306 1306 1306 1306 1309 1309 1315 1315 1317 1317 1323 1323 1330 1330 1332 1332 1340 1340 1342 1342 1338 1338 1329 1329 1335 1335 1349 1349 1360 1360 1354 1354 1354 1354 1361 1361
1254 1254 1253 1253 1253 1253 1254 1254 1259 1259 1259 1259 1264 1264 1266 1266 1266 1266 1263 1263 1252 1252 1248 1248 1246 1246 1242 1242 1238 1238 1238 1238 1238 1238 1241 1241 1254 1254 1256 1256 1256 1256 1258 1258 1262 1262 1274 1274 1274 1274 1273 1273 1278 1278 1280 1280 1277 1277 1277 1277 1278 1278 1280 1280 1286 1286 1286 1286 1290 1290 1290 1290 1288 1288 1280 1280 1273 1273 1262 1262 1254 1254 1249 1249 1245 1245 1243 1243 1245 1245 1245 1245 1239 1239 1239 1239 1240 1240 1246 1246 1252 1252 1257 1257 1261 1261 1266 1266 1272 1272 1276 1276 1278 1278 1278 1278 1276 1276 1268 1268 1258 1258 1257 1257 1253 1253 1252 1252 1252 1252 1255 1255 1257 1257 1259 1259 1259 1259 1258 1258 1254 1254 1253 1253 1253 1253 1254 1254 1253 1253 1250 1250 1252 1252 1262 1262 1263 1263 1264 1264 1266 1266 1267 1267 1273 1273 1273 1273 1270 1270 1270 1270 1270 1270 1270 1270 1264 1264 1256 1256 1252 1252 1252 1252 1255 1255 1256 1256 1263 1263 1265 1265 1274 1274 1274 1274 1273 1273 1274 1274 1274 1274 1272 1272 1268 1268 1268 1268 1270 1270 1274 1274 1282 1282 1286 1286 1285 1285 1285 1285 1280 1280 1275 1275 1272 1272 1270 1270 1270 1270 1271 1271 1266 1266 1265 1265 1265 1265 1265 1265 1266 1266 1263 1263 1263 1263 1263 1263 1264 1264 1265 1265 1265 1265 1263 1263 1263 1263 1263 1263 1263 1263 1263 1263 1262 1262 1258 1258 1257 1257 1256 1256 1257 1257 1258 1258 1262 1262 1259 1259 1259 1259 1260 1260 1262 1262 1266 1266 1270 1270 1270 1270 1274 1274 1284 1284 1286 1286 1291 1291 1298 1298 1300 1300 1300 1300 1298 1298 1298 1298 1296 1296 1296 1296 1290 1290 1288 1288 1288 1288 1290 1290 1291 1291 1294 1294 1297 1297 1304 1304 1309 1309 1313 1313 1308 1308 1308 1308 1306 1306 1305 1305 1305 1305 1299 1299 1297 1297 1294 1294 1294 1294 1294 1294 1291 1291 1289 1289 1289 1289 1297 1297 1300 1300 1300 1300 1300 1300 1301 1301 1302 1302 1302 1302 1301 1301 1298 1298 1296 1296 1296 1296 1294 1294 1294 1294 1294 1294 1292 1292 1289 1289 1286 1286 1283 1283 1284 1284 1286 1286 1282 1282 1278 1278 1278 1278 1278 1278 1275 1275 1276 1276 1276 1276 1275 1275 1275 1275 1276 1276 1276 1276 1272 1272 1270 1270 1267 1267 1267 1267 1282 1282 1282 1282 1270 1270 1261 1261 1261 1261 1276 1276 1276 1276 1267 1267 1262 1262 1261 1261 1258 1258 1258 1258 1258 1258 1253 1253 1250 1250 1249 1249 1250 1250 1252 1252 1259 1259 1262 1262 1276 1276 1286 1286 1286 1286 1286 1286 1284 1284 1285 1285 1285 1285 1281 1281 1274 1274 1271 1271 1271 1271 1271 1271 1269 1269 1263 1263 1260 1260 1260 1260 1264 1264 1266 1266 1267 1267 1268 1268 1269 1269 1270 1270 1278 1278 1286 1286 1287 1287 1289 1289 1290 1290 1290 1290 1290 1290 1298 1298 1302 1302 1302 1302 1303 1303 1303 1303 1297 1297 1294 1294 1297 1297 1297 1297 1294 1294 1289 1289 1287 1287 1284 1284 1282 1282 1277 1277 1277 1277 1282 1282 1282 1282 1278 1278 1274 1274 1271 1271 1271 1271 1270 1270 1269 1269 1265 1265 1263 1263 1261 1261 1253 1253 1250 1250 1254 1254 1253 1253 1253 1253 1258 1258 1270 1270 1271 1271 1274 1274 1282 1282 1285 1285 1294 1294 1290 1290 1291 1291 1296 1296 1298 1298 1299 1299 1299 1299 1298 1298 1298 1298 1298 1298 1290 1290 1283 1283 1305 1305 1308 1308 1310 1310 1320 1320 1327 1327 1346 1346
1254 1254 1253 1253 1253 1253 1254 1254 1259 1259 1259 1259 1264 1264 1266 1266 1266 1266 1263 1263 1252 1252 1248 1248 1246 1246 1242 1242 1238 1238 1238 1238 1238 1238 1241 1241 1254 1254 1256 1256 1256 1256 1258 1258 1262 1262 1274 1274 1274 1274 1273 1273 1278 1278 1280 1280 1277 1277 1277 1277 1278 1278 1280 1280 1286 1286 1286 1286 1290 1290 1290 1290 1288 1288 1280 1280 1273 1273 1262 1262 1254 1254 1249 1249 1245 1245 1243 1243 1245 1245 1245 1245 1239 1239 1239 1239 1240 1240 1246 1246 1252 1252 1257 1257 1261 1261 1266 1266 1272 1272 1276 1276 1278 1278 1278 1278 1276 1276 1268 1268 1258 1258 1257 1257 1253 1253 1252 1252 1252 1252 1255 1255 1257 1257 1259 1259 1259 1259 1258 1258 1254 1254 1253 1253 1253 1253 1254 1254 1253 1253 1250 1250 1252 1252 1262 1262 1263 1263 1264 1264 1266 1266 1267 1267 1273 1273 1273 1273 1270 1270 1270 1270 1270 1270 1270 1270 1264 1264 1256 1256 1252 1252 1252 1252 1255 1255 1256 1256 1263 1263 1265 1265 1274 1274 1274 1274 1273 1273 1274 1274 1274 1274 1272 1272 1268 1268 1268 1268 1270 1270 1274 1274 1282 1282 1286 1286 1285 1285 1285 1285 1280 1280 1275 1275 1272 1272 1270 1270 1270 1270 1271 1271 1266 1266 1265 1265 1265 1265 1265 1265 1266 1266 1263 1263 1263 1263 1263 1263 1264 1264 1265 1265 1265 1265 1263 1263 1263 1263 1263 1263 1263 1263 1263 1263 1262 1262 1258 1258 1257 1257 1256 1256 1257 1257 1258 1258 1262 1262 1259 1259 1259 1259 1260 1260 1262 1262 1266 1266 1270 1270 1270 1270 1274 1274 1284 1284 1286 1286 1291 1291 1298 1298 1300 1300 1300 1300 1298 1298 1298 1298 1296 1296 1296 1296 1290 1290 1288 1288 1288 1288 1290 1290 1291 1291 1294 1294 1297 1297 1304 1304 1309 1309 1313 1313 1308 1308 1308 1308 1306 1306 1305 1305 1305 1305 1299 1299 1297 1297 1294 1294 1294 1294 1294 1294 1291 1291 1289 1289 1289 1289 1297 1297 1300 1300 1300 1300 1300 1300 1301 1301 1302 1302 1302 1302 1301 1301 1298 1298 1296 1296 1296 1296 1294 1294 1294 1294 1294 1294 1292 1292 1289 1289 1286 1286 1283 1283 1284 1284 1286 1286 1282 1282 1278 1278 1278 1278 1278 1278 1275 1275 1276 1276 1276 1276 1275 1275 1275 1275 1276 1276 1276 1276 1272 1272 1270 1270 1267 1267 1267 1267 1282 1282 1282 1282 1270 1270 1261 1261 1261 1261 1276 1276 1276 1276 1267 1267 1262 1262 1261 1261 1258 1258 1258 1258 1258 1258 1253 1253 1250 1250 1249 1249 1250 1250 1252 1252 1259 1259 1262 1262 1276 1276 1286 1286 1286 1286 1286 1286 1284 1284 1285 1285 1285 1285 1281 1281 1274 1274 1271 1271 1271 1271 1271 1271 1269 1269 1263 1263 1260 1260 1260 1260 1264 1264 1266 1266 1267 1267 1268 1268 1269 1269 1270 1270 1278 1278 1286 1286 1287 1287 1289 1289 1290 1290 1290 1290 1290 1290 1298 1298 1302 1302 1302 1302 1303 1303 1303 1303 1297 1297 1294 1294 1297 1297 1297 1297 1294 1294 1289 1289 1287 1287 1284 1284 1282 1282 1277 1277 1277 1277 1282 1282 1282 1282 1278 1278 1274 1274 1271 1271 1271 1271 1270 1270 1269 1269 1265 1265 1263 1263 1261 1261 1253 1253 1250 1250 1254 1254 1253 1253 1253 1253 1258 1258 1270 1270 1271 1271 1274 1274 1282 1282 1285 1285 1294 1294 1290 1290 1291 1291 1296 1296 1298 1298 1299 1299 1299 1299 1298 1298 1298 1298 1298 1298 1290 1290 1283 1283 1305 1305 1308 1308 1310 1310 1320 1320 1327 1327 1346 1346
1252 1252 1250 1250 1249 1249 1249 1249 1249 1249 1247 1247 1247 1247 1247 1247 1247 1247 1242 1242 1238 1238 1234 1234 1232 1232 1229 1229 1228 1228 1226 1226 1223 1223 1223 1223 1228 1228 1236 1236 1234 1234 1234 1234 1246 1246 1257 1257 1259 1259 1257 1257 1261 1261 1263 1263 1263 1263 1261 1261 1261 1261 1262 1262 1260 1260 1260 1260 1258 1258 1268 1268 1268 1268 1265 1265 1262 1262 1253 1253 1249 1249 1242 1242 1240 1240 1240 1240 1240 1240 1236 1236 1231 1231 1229 1229 1230 1230 1234 1234 1240 1240 1247 1247 1247 1247 1252 1252 1254 1254 1262 1262 1267 1267 1267 1267 1259 1259 1252 1252 1245 1245 1243 1243 1239 1239 1238 1238 1237 1237 1238 1238 1238 1238 1243 1243 1243 1243 1242 1242 1241 1241 1239 1239 1236 1236 1236 1236 1229 1229 1220 1220 1220 1220 1227 1227 1230 1230 1230 1230 1232 1232 1240 1240 1250 1250 1251 1251 1251 1251 1253 1253 1255 1255 1254 1254 1249 1249 1242 1242 1238 1238 1238 1238 1241 1241 1242 1242 1242 1242 1246 1246 1253 1253 1258 1258 1258 1258 1253 1253 1254 1254 1254 1254 1255 1255 1256 1256 1258 1258 1261 1261 1262 1262 1266 1266 1266 1266 1262 1262 1262 1262 1259 1259 1256 1256 1256 1256 1254 1254 1254 1254 1252 1252 1251 1251 1251 1251 1251 1251 1252 1252 1252 1252 1252 1252 1250 1250 1249 1249 1248 1248 1248 1248 1245 1245 1245 1245 1245 1245 1246 1246 1246 1246 1248 1248 1246 1246 1244 1244 1248 1248 1248 1248 1249 1249 1250 1250 1250 1250 1250 1250 1251 1251 1253 1253 1256 1256 1260 1260 1262 1262 1264 1264 1267 1267 1270 1270 1274 1274 1282 1282 1282 1282 1281 1281 1278 1278 1275 1275 1273 1273 1269 1269 1270 1270 1269 1269 1268 1268 1268 1268 1270 1270 1276 1276 1277 1277 1278 1278 1278 1278 1274 1274 1272 1272 1266 1266 1260 1260 1255 1255 1255 1255 1258 1258 1258 1258 1258 1258 1258 1258 1263 1263 1264 1264 1264 1264 1265 1265 1270 1270 1275 1275 1276 1276 1275 1275 1276 1276 1286 1286 1286 1286 1286 1286 1283 1283 1282 1282 1282 1282 1278 1278 1278 1278 1278 1278 1276 1276 1272 1272 1267 1267 1265 1265 1269 1269 1269 1269 1266 1266 1266 1266 1265 1265 1264 1264 1262 1262 1263 1263 1264 1264 1263 1263 1262 1262 1262 1262 1262 1262 1260 1260 1257 1257 1253 1253 1250 1250 1247 1247 1248 1248 1245 1245 1243 1243 1242 1242 1246 1246 1247 1247 1247 1247 1247 1247 1242 1242 1242 1242 1241 1241 1242 1242 1242 1242 1242 1242 1242 1242 1244 1244 1246 1246 1246 1246 1242 1242 1250 1250 1260 1260 1260 1260 1261 1261 1266 1266 1266 1266 1268 1268 1266 1266 1258 1258 1253 1253 1253 1253 1252 1252 1252 1252 1248 1248 1246 1246 1251 1251 1257 1257 1259 1259 1262 1262 1262 1262 1262 1262 1261 1261 1264 1264 1270 1270 1270 1270 1269 1269 1267 1267 1267 1267 1270 1270 1270 1270 1267 1267 1263 1263 1263 1263 1269 1269 1265 1265 1265 1265 1266 1266 1266 1266 1266 1266 1266 1266 1265 1265 1265 1265 1260 1260 1260 1260 1260 1260 1263 1263 1263 1263 1262 1262 1260 1260 1260 1260 1266 1266 1266 1266 1258 1258 1258 1258 1258 1258 1253 1253 1249 1249 1249 1249 1250 1250 1250 1250 1250 1250 1253 1253 1261 1261 1269 1269 1269 1269 1267 1267 1267 1267 1270 1270 1275 1275 1275 1275 1274 1274 1284 1284 1288 1288 1288 1288 1287 1287 1287 1287 1282 1282 1263 1263 1262 1262 1264 1264 1258 1258 1258 1258 1260 1260 1271 1271 1315 1315
1252 1252 1250 1250 1249 1249 1249 1249 1249 1249 1247 1247 1247 1247 1247 1247 1247 1247 1242 1242 1238 1238 1234 1234 1232 1232 1229 1229 1228 1228 1226 1226 1223 1223 1223 1223 1228 1228 1236 1236 1234 1234 1234 1234 1246 1246 1257 1257 1259 1259 1257 1257 1261 1261 1263 1263 1263 1263 1261 1261 1261 1261 1262 1262 1260 1260 1260 1260 1258 1258 1268 1268 1268 1268 1265 1265 1262 1262 1253 1253 1249 1249 1242 1242 1240 1240 1240 1240 1240 1240 1236 1236 1231 1231 1229 1229 1230 1230 1234 1234 1240 1240 1247 1247 1247 1247 1252 1252 1254 1254 1262 1262 1267 1267 1267 1267 1259 1259 1252 1252 1245 1245 1243 1243 1239 1239 1238 1238 1237 1237 1238 1238 1238 1238 1243 1243 1243 1243 1242 1242 1241 1241 1239 1239 1236 1236 1236 1236 1229 1229 1220 1220 1220 1220 1227 1227 1230 1230 1230 1230 1232 1232 1240 1240 1250 1250 1251 1251 1251 1251 1253 1253 1255 1255 1254 1254 1249 1249 1242 1242 1238 1238 1238 1238 1241 1241 1242 1242 1242 1242 1246 1246 1253 1253 1258 1258 1258 1258 1253 1253 1254 1254 1254 1254 1255 1255 1256 1256 1258 1258 1261 1261 1262 1262 1266 1266 1266 1266 1262 1262 1262 1262 1259 1259 1256 1256 1256 1256 1254 1254 1254 1254 1252 1252 1251 1251 1251 1251 1251 1251 1252 1252 1252 1252 1252 1252 1250 1250 1249 1249 1248 1248 1248 1248 1245 1245 1245 1245 1245 1245 1246 1246 1246 1246 1248 1248 1246 1246 1244 1244 1248 1248 1248 1248 1249 1249 1250 1250 1250 1250 1250 1250 1251 1251 1253 1253 1256 1256 1260 1260 1262 1262 1264 1264 1267 1267 1270 1270 1274 1274 1282 1282 1282 1282 1281 1281 1278 1278 1275 1275 1273 1273 1269 1269 1270 1270 1269 1269 1268 1268 1268 1268 1270 1270 1276 1276 1277 1277 1278 1278 1278 1278 1274 1274 1272 1272 1266 1266 1260 1260 1255 1255 1255 1255 1258 1258 1258 1258 1258 1258 1258 1258 1263 1263 1264 1264 1264 1264 1265 1265 1270 1270 1275 1275 1276 1276 1275 1275 1276 1276 1286 1286 1286 1286 1286 1286 1283 1283 1282 1282 1282 1282 1278 1278 1278 1278 1278 1278 1276 1276 1272 1272 1267 1267 1265 1265 1269 1269 1269 1269 1266 1266 1266 1266 1265 1265 1264 1264 1262 1262 1263 1263 1264 1264 1263 1263 1262 1262 1262 1262 1262 1262 1260 1260 1257 1257 1253 1253 1250 1250 1247 1247 1248 1248 1245 1245 1243 1243 1242 1242 1246 1246 1247 1247 1247 1247 1247 1247 1242 1242 1242 1242 1241 1241 1242 1242 1242 1242 1242 1242 1242 1242 1244 1244 1246 1246 1246 1246 1242 1242 1250 1250 1260 1260 1260 1260 1261 1261 1266 1266 1266 1266 1268 1268 1266 1266 1258 1258 1253 1253 1253 1253 1252 1252 1252 1252 1248 1248 1246 1246 1251 1251 1257 1257 1259 1259 1262 1262 1262 1262 1262 1262 1261 1261 1264 1264 1270 1270 1270 1270 1269 1269 1267 1267 1267 1267 1270 1270 1270 1270 1267 1267 1263 1263 1263 1263 1269 1269 1265 1265 1265 1265 1266 1266 1266 1266 1266 1266 1266 1266 1265 1265 1265 1265 1260 1260 1260 1260 1260 1260 1263 1263 1263 1263 1262 1262 1260 1260 1260 1260 1266 1266 1266 1266 1258 1258 1258 1258 1258 1258 1253 1253 1249 1249 1249 1249 1250 1250 1250 1250 1250 1250 1253 1253 1261 1261 1269 1269 1269 1269 1267 1267 1267 1267 1270 1270 1275 1275 1275 1275 1274 1274 1284 1284 1288 1288 1288 1288 1287 1287 1287 1287 1282 1282 1263 1263 1262 1262 1264 1264 1258 1258 1258 1258 1260 1260 1271 1271 1315 1315
1238 1238 1236 1236 1234 1234 1234 1234 1234 1234 1234 1234 1231 1231 1230 1230 1230 1230 1230 1230 1224 1224 1221 1221 1220 1220 1218 1218 1215 1215 1214 1214 1214 1214 1214 1214 1216 1216 1218 1218 1218 1218 1222 1222 1233 1233 1245 1245 1245 1245 1246 1246 1249 1249 1255 1255 1256 1256 1255 1255 1254 1254 1255 1255 1253 1253 1253 1253 1248 1248 1245 1245 1245 1245 1244 1244 1246 1246 1241 1241 1232 1232 1228 1228 1225 1225 1223 1223 1222 1222 1217 1217 1214 1214 1213 1213 1214 1214 1217 1217 1220 1220 1226 1226 1227 1227 1227 1227 1229 1229 1242 1242 1252 1252 1252 1252 1237 1237 1225 1225 1221 1221 1221 1221 1220 1220 1220 1220 1219 1219 1220 1220 1220 1220 1224 1224 1227 1227 1227 1227 1226 1226 1224 1224 1220 1220 1215 1215 1211 1211 1205 1205 1203 1203 1206 1206 1206 1206 1207 1207 1213 1213 1221 1221 1228 1228 1233 1233 1230 1230 1230 1230 1234 1234 1235 1235 1230 1230 1223 1223 1219 1219 1219 1219 1219 1219 1218 1218 1215 1215 1211 1211 1213 1213 1231 1231 1231 1231 1220 1220 1220 1220 1226 1226 1226 1226 1226 1226 1227 1227 1238 1238 1241 1241 1248 1248 1248 1248 1245 1245 1245 1245 1241 1241 1241 1241 1241 1241 1243 1243 1244 1244 1243 1243 1242 1242 1241 1241 1241 1241 1241 1241 1242 1242 1242 1242 1240 1240 1232 1232 1230 1230 1230 1230 1230 1230 1233 1233 1235 1235 1234 1234 1234 1234 1239 1239 1239 1239 1234 1234 1234 1234 1234 1234 1233 1233 1233 1233 1233 1233 1232 1232 1231 1231 1231 1231 1236 1236 1238 1238 1243 1243 1246 1246 1249 1249 1250 1250 1255 1255 1259 1259 1259 1259 1259 1259 1257 1257 1257 1257 1258 1258 1260 1260 1261 1261 1261 1261 1258 1258 1258 1258 1258 1258 1264 1264 1266 1266 1266 1266 1260 1260 1257 1257 1256 1256 1254 1254 1250 1250 1246 1246 1246 1246 1247 1247 1249 1249 1248 1248 1248 1248 1250 1250 1251 1251 1252 1252 1253 1253 1253 1253 1260 1260 1261 1261 1261 1261 1260 1260 1263 1263 1267 1267 1270 1270 1270 1270 1268 1268 1266 1266 1264 1264 1264 1264 1262 1262 1261 1261 1258 1258 1253 1253 1249 1249 1253 1253 1253 1253 1249 1249 1248 1248 1242 1242 1242 1242 1241 1241 1250 1250 1253 1253 1253 1253 1253 1253 1253 1253 1253 1253 1250 1250 1244 1244 1242 1242 1235 1235 1235 1235 1235 1235 1233 1233 1232 1232 1233 1233 1234 1234 1236 1236 1237 1237 1233 1233 1232 1232 1231 1231 1229 1229 1228 1228 1227 1227 1227 1227 1227 1227 1232 1232 1230 1230 1230 1230 1225 1225 1229 1229 1234 1234 1235 1235 1235 1235 1235 1235 1236 1236 1240 1240 1240 1240 1237 1237 1235 1235 1235 1235 1236 1236 1236 1236 1236 1236 1235 1235 1242 1242 1246 1246 1255 1255 1258 1258 1258 1258 1255 1255 1255 1255 1257 1257 1258 1258 1258 1258 1253 1253 1248 1248 1247 1247 1247 1247 1246 1246 1245 1245 1242 1242 1242 1242 1242 1242 1246 1246 1246 1246 1251 1251 1251 1251 1250 1250 1250 1250 1251 1251 1251 1251 1246 1246 1246 1246 1248 1248 1250 1250 1250 1250 1250 1250 1249 1249 1244 1244 1247 1247 1249 1249 1249 1249 1247 1247 1247 1247 1246 1246 1242 1242 1241 1241 1241 1241 1238 1238 1238 1238 1245 1245 1245 1245 1245 1245 1243 1243 1243 1243 1245 1245 1253 1253 1256 1256 1260 1260 1262 1262 1263 1263 1276 1276 1277 1277 1277 1277 1274 1274 1258 1258 1251 1251 1249 1249 1250 1250 1250 1250 1248 1248 1250 1250 1250 1250 1253 1253
1238 1238 1236 1236 1234 1234 1234 1234 1234 1234 1234 1234 1231 1231 1230 1230 1230 1230 1230 1230 1224 1224 1221 1221 1220 1220 1218 1218 1215 1215 1214 1214 1214 1214 1214 1214 1216 1216 1218 1218 1218 1218 1222 1222 1233 1233 1245 1245 1245 1245 1246 1246 1249 1249 1255 1255 1256 1256 1255 1255 1254 1254 1255 1255 1253 1253 1253 1253 1248 1248 1245 1245 1245 1245 1244 1244 1246 1246 1241 1241 1232 1232 1228 1228 1225 1225 1223 1223 1222 1222 1217 1217 1214 1214 1213 1213 1214 1214 1217 1217 1220 1220 1226 1226 1227 1227 1227 1227 1229 1229 1242 1242 1252 1252 1252 1252 1237 1237 1225 1225 1221 1221 1221 1221 1220 1220 1220 1220 1219 1219 1220 1220 1220 1220 1224 1224 1227 1227 1227 1227 1226 1226 1224 1224 1220 1220 1215 1215 1211 1211 1205 1205 1203 1203 1206 1206 1206 1206 1207 1207 1213 1213 1221 1221 1228 1228 1233 1233 1230 1230 1230 1230 1234 1234 1235 1235 1230 1230 1223 1223 1219 1219 1219 1219 1219 1219 1218 1218 1215 1215 1211 1211 1213 1213 1231 1231 1231 1231 1220 1220 1220 1220 1226 1226 1226 1226 1226 1226 1227 1227 1238 1238 1241 1241 1248 1248 1248 1248 1245 1245 1245 1245 1241 1241 1241 1241 1241 1241 1243 1243 1244 1244 1243 1243 1242 1242 1241 1241 1241 1241 1241 1241 1242 1242 1242 1242 1240 1240 1232 1232 1230 1230 1230 1230 1230 1230 1233 1233 1235 1235 1234 1234 1234 1234 1239 1239 1239 1239 1234 1234 1234 1234 1234 1234 1233 1233 1233 1233 1233 1233 1232 1232 1231 1231 1231 1231 1236 1236 1238 1238 1243 1243 1246 1246 1249 1249 1250 1250 1255 1255 1259 1259 1259 1259 1259 1259 1257 1257 1257 1257 1258 1258 1260 1260 1261 1261 1261 1261 1258 1258 1258 1258 1258 1258 1264 1264 1266 1266 1266 1266 1260 1260 1257 1257 1256 1256 1254 1254 1250 1250 1246 1246 1246 1246 1247 1247 1249 1249 1248 1248 1248 1248 1250 1250 1251 1251 1252 1252 1253 1253 1253 1253 1260 1260 1261 1261 1261 1261 1260 1260 1263 1263 1267 1267 1270 1270 1270 1270 1268 1268 1266 1266 1264 1264 1264 1264 1262 1262 1261 1261 1258 1258 1253 1253 1249 1249 1253 1253 1253 1253 1249 1249 1248 1248 1242 1242 1242 1242 1241 1241 1250 1250 1253 1253 1253 1253 1253 1253 1253 1253 1253 1253 1250 1250 1244 1244 1242 1242 1235 1235 1235 1235 1235 1235 1233 1233 1232 1232 1233 1233 1234 1234 1236 1236 1237 1237 1233 1233 1232 1232 1231 1231 1229 1229 1228 1228 1227 1227 1227 1227 1227 1227 1232 1232 1230 1230 1230 1230 1225 1225 1229 1229 1234 1234 1235 1235 1235 1235 1235 1235 1236 1236 1240 1240 1240 1240 1237 1237 1235 1235 1235 1235 1236 1236 1236 1236 1236 1236 1235 1235 1242 1242 1246 1246 1255 1255 1258 1258 1258 1258 1255 1255 1255 1255 1257 1257 1258 1258 1258 1258 1253 1253 1248 1248 1247 1247 1247 1247 1246 1246 1245 1245 1242 1242 1242 1242 1242 1242 1246 1246 1246 1246 1251 1251 1251 1251 1250 1250 1250 1250 1251 1251 1251 1251 1246 1246 1246 1246 1248 1248 1250 1250 1250 1250 1250 1250 1249 1249 1244 1244 1247 1247 1249 1249 1249 1249 1247 1247 1247 1247 1246 1246 1242 1242 1241 1241 1241 1241 1238 1238 1238 1238 1245 1245 1245 1245 1245 1245 1243 1243 1243 1243 1245 1245 1253 1253 1256 1256 1260 1260 1262 1262 1263 1263 1276 1276 1277 1277 1277 1277 1274 1274 1258 1258 1251 1251 1249 1249 1250 1250 1250 1250 1248 1248 1250 1250 1250 1250 1253 1253
1221 1221 1216 1216 1211 1211 1206 1206 1201 1201 1200 1200 1195 1195 1195 1195 1202 1202 1205 1205 1202 1202 1201 1201 1205 1205 1206 1206 1206 1206 1206 1206 1206 1206 1205 1205 1208 1208 1210 1210 1210 1210 1206 1206 1214 1214 1218 1218 1225 1225 1226 1226 1226 1226 1231 1231 1233 1233 1238 1238 1238 1238 1237 1237 1236 1236 1230 1230 1226 1226 1222 1222 1218 1218 1217 1217 1218 1218 1215 1215 1212 1212 1212 1212 1214 1214 1214 1214 1212 1212 1207 1207 1206 1206 1207 1207 1208 1208 1210 1210 1213 1213 1214 1214 1212 1212 1211 1211 1208 1208 1208 1208 1210 1210 1207 1207 1206 1206 1203 1203 1203 1203 1203 1203 1203 1203 1203 1203 1202 1202 1202 1202 1200 1200 1200 1200 1202 1202 1203 1203 1203 1203 1202 1202 1201 1201 1195 1195 1193 1193 1194 1194 1195 1195 1195 1195 1195 1195 1196 1196 1198 1198 1205 1205 1208 1208 1210 1210 1211 1211 1211 1211 1214 1214 1215 1215 1214 1214 1213 1213 1213 1213 1214 1214 1214 1214 1210 1210 1205 1205 1203 1203 1203 1203 1205 1205 1212 1212 1209 1209 1208 1208 1212 1212 1214 1214 1214 1214 1209 1209 1206 1206 1205 1205 1206 1206 1210 1210 1210 1210 1214 1214 1214 1214 1210 1210 1214 1214 1216 1216 1216 1216 1216 1216 1216 1216 1214 1214 1214 1214 1210 1210 1206 1206 1206 1206 1203 1203 1203 1203 1203 1203 1206 1206 1209 1209 1216 1216 1218 1218 1218 1218 1220 1220 1221 1221 1223 1223 1222 1222 1222 1222 1222 1222 1222 1222 1221 1221 1220 1220 1222 1222 1222 1222 1222 1222 1225 1225 1225 1225 1226 1226 1230 1230 1230 1230 1230 1230 1234 1234 1238 1238 1239 1239 1241 1241 1238 1238 1232 1232 1230 1230 1232 1232 1235 1235 1233 1233 1229 1229 1226 1226 1222 1222 1222 1222 1228 1228 1228 1228 1224 1224 1218 1218 1216 1216 1215 1215 1216 1216 1216 1216 1214 1214 1214 1214 1218 1218 1218 1218 1220 1220 1234 1234 1235 1235 1238 1238 1238 1238 1238 1238 1239 1239 1242 1242 1243 1243 1246 1246 1248 1248 1250 1250 1256 1256 1257 1257 1257 1257 1250 1250 1246 1246 1249 1249 1250 1250 1249 1249 1247 1247 1242 1242 1238 1238 1238 1238 1242 1242 1237 1237 1232 1232 1224 1224 1222 1222 1218 1218 1217 1217 1217 1217 1217 1217 1219 1219 1219 1219 1221 1221 1214 1214 1215 1215 1217 1217 1216 1216 1216 1216 1216 1216 1214 1214 1214 1214 1215 1215 1215 1215 1214 1214 1214 1214 1213 1213 1210 1210 1210 1210 1213 1213 1213 1213 1213 1213 1210 1210 1210 1210 1218 1218 1218 1218 1214 1214 1210 1210 1214 1214 1219 1219 1222 1222 1225 1225 1223 1223 1223 1223 1225 1225 1227 1227 1227 1227 1227 1227 1228 1228 1224 1224 1224 1224 1226 1226 1226 1226 1223 1223 1225 1225 1229 1229 1231 1231 1231 1231 1228 1228 1226 1226 1226 1226 1226 1226 1223 1223 1222 1222 1216 1216 1214 1214 1213 1213 1208 1208 1210 1210 1210 1210 1214 1214 1216 1216 1223 1223 1228 1228 1229 1229 1230 1230 1230 1230 1234 1234 1234 1234 1235 1235 1228 1228 1228 1228 1233 1233 1234 1234 1234 1234 1234 1234 1233 1233 1230 1230 1230 1230 1238 1238 1242 1242 1241 1241 1238 1238 1235 1235 1232 1232 1230 1230 1228 1228 1222 1222 1228 1228 1233 1233 1238 1238 1238 1238 1236 1236 1234 1234 1238 1238 1244 1244 1248 1248 1249 1249 1250 1250 1251 1251 1258 1258 1256 1256 1249 1249 1238 1238 1226 1226 1236 1236 1237 1237 1238 1238 1238 1238 1242 1242 1243 1243 1244 1244 1244 1244
1221 1221 1216 1216 1211 1211 1206 1206 1201 1201 1200 1200 1195 1195 1195 1195 1202 1202 1205 1205 1202 1202 1201 1201 1205 1205 1206 1206 1206 1206 1206 1206 1206 1206 1205 1205 1208 1208 1210 1210 1210 1210 1206 1206 1214 1214 1218 1218 1225 1225 1226 1226 1226 1226 1231 1231 1233 1233 1238 1238 1238 1238 1237 1237 1236 1236 1230 1230 1226 1226 1222 1222 1218 1218 1217 1217 1218 1218 1215 1215 1212 1212 1212 1212 1214 1214 1214 1214 1212 1212 1207 1207 1206 1206 1207 1207 1208 1208 1210 1210 1213 1213 1214 1214 1212 1212 1211 1211 1208 1208 1208 1208 1210 1210 1207 1207 1206 1206 1203 1203 1203 1203 1203 1203 1203 1203 1203 1203 1202 1202 1202 1202 1200 1200 1200 1200 1202 1202 1203 1203 1203 1203 1202 1202 1201 1201 1195 1195 1193 1193 1194 1194 1195 1195 1195 1195 1195 1195 1196 1196 1198 1198 1205 1205 1208 1208 1210 1210 1211 1211 1211 1211 1214 1214 1215 1215 1214 1214 1213 1213 1213 1213 1214 1214 1214 1214 1210 1210 1205 1205 1203 1203 1203 1203 1205 1205 1212 1212 1209 1209 1208 1208 1212 1212 1214 1214 1214 1214 1209 1209 1206 1206 1205 1205 1206 1206 1210 1210 1210 1210 1214 1214 1214 1214 1210 1210 1214 1214 1216 1216 1216 1216 1216 1216 1216 1216 1214 1214 1214 1214 1210 1210 1206 1206 1206 1206 1203 1203 1203 1203 1203 1203 1206 1206 1209 1209 1216 1216 1218 1218 1218 1218 1220 1220 1221 1221 1223 1223 1222 1222 1222 1222 1222 1222 1222 1222 1221 1221 1220 1220 1222 1222 1222 1222 1222 1222 1225 1225 1225 1225 1226 1226 1230 1230 1230 1230 1230 1230 1234 1234 1238 1238 1239 1239 1241 1241 1238 1238 1232 1232 1230 1230 1232 1232 1235 1235 1233 1233 1229 1229 1226 1226 1222 1222 1222 1222 1228 1228 1228 1228 1224 1224 1218 1218 1216 1216 1215 1215 1216 1216 1216 1216 1214 1214 1214 1214 1218 1218 1218 1218 1220 1220 1234 1234 1235 1235 1238 1238 1238 1238 1238 1238 1239 1239 1242 1242 1243 1243 1246 1246 1248 1248 1250 1250 1256 1256 1257 1257 1257 1257 1250 1250 1246 1246 1249 1249 1250 1250 1249 1249 1247 1247 1242 1242 1238 1238 1238 1238 1242 1242 1237 1237 1232 1232 1224 1224 1222 1222 1218 1218 1217 1217 1217 1217 1217 1217 1219 1219 1219 1219 1221 1221 1214 1214 1215 1215 1217 1217 1216 1216 1216 1216 1216 1216 1214 1214 1214 1214 1215 1215 1215 1215 1214 1214 1214 1214 1213 1213 1210 1210 1210 1210 1213 1213 1213 1213 1213 1213 1210 1210 1210 1210 1218 1218 1218 1218 1214 1214 1210 1210 1214 1214 1219 1219 1222 1222 1225 1225 1223 1223 1223 1223 1225 1225 1227 1227 1227 1227 1227 1227 1228 1228 1224 1224 1224 1224 1226 1226 1226 1226 1223 1223 1225 1225 1229 1229 1231 1231 1231 1231 1228 1228 1226 1226 1226 1226 1226 1226 1223 1223 1222 1222 1216 1216 1214 1214 1213 1213 1208 1208 1210 1210 1210 1210 1214 1214 1216 1216 1223 1223 1228 1228 1229 1229 1230 1230 1230 1230 1234 1234 1234 1234 1235 1235 1228 1228 1228 1228 1233 1233 1234 1234 1234 1234 1234 1234 1233 1233 1230 1230 1230 1230 1238 1238 1242 1242 1241 1241 1238 1238 1235 1235 1232 1232 1230 1230 1228 1228 1222 1222 1228 1228 1233 1233 1238 1238 1238 1238 1236 1236 1234 1234 1238 1238 1244 1244 1248 1248 1249 1249 1250 1250 1251 1251 1258 1258 1256 1256 1249 1249 1238 1238 1226 1226 1236 1236 1237 1237 1238 1238 1238 1238 1242 1242 1243 1243 1244 1244 1244 1244
1196 1196 1192 1192 1186 1186 1166 1166 1162 1162 1164 1164 1166 1166 1166 1166 1170 1170 1176 1176 1181 1181 1181 1181 1190 1190 1198 1198 1200 1200 1200 1200 1196 1196 1194 1194 1196 1196 1197 1197 1197 1197 1198 1198 1198 1198 1196 1196 1193 1193 1194 1194 1197 1197 1203 1203 1208 1208 1214 1214 1210 1210 1210 1210 1213 1213 1212 1212 1203 1203 1201 1201 1198 1198 1198 1198 1202 1202 1202 1202 1196 1196 1196 1196 1199 1199 1198 1198 1195 1195 1194 1194 1192 1192 1192 1192 1197 1197 1200 1200 1203 1203 1203 1203 1199 1199 1197 1197 1197 1197 1198 1198 1198 1198 1195 1195 1194 1194 1193 1193 1194 1194 1195 1195 1195 1195 1193 1193 1188 1188 1188 1188 1187 1187 1184 1184 1184 1184 1188 1188 1188 1188 1188 1188 1185 1185 1179 1179 1178 1178 1179 1179 1179 1179 1179 1179 1178 1178 1180 1180 1186 1186 1192 1192 1195 1195 1198 1198 1200 1200 1202 1202 1205 1205 1206 1206 1203 1203 1202 1202 1201 1201 1199 1199 1199 1199 1195 1195 1191 1191 1195 1195 1196 1196 1197 1197 1198 1198 1198 1198 1198 1198 1201 1201 1203 1203 1205 1205 1203 1203 1203 1203 1201 1201 1201 1201 1203 1203 1203 1203 1203 1203 1202 1202 1199 1199 1200 1200 1205 1205 1205 1205 1203 1203 1202 1202 1201 1201 1199 1199 1198 1198 1194 1194 1190 1190 1190 1190 1187 1187 1187 1187 1187 1187 1190 1190 1195 1195 1198 1198 1199 1199 1205 1205 1208 1208 1210 1210 1210 1210 1210 1210 1214 1214 1214 1214 1211 1211 1210 1210 1208 1208 1207 1207 1206 1206 1206 1206 1206 1206 1206 1206 1213 1213 1212 1212 1212 1212 1212 1212 1213 1213 1214 1214 1215 1215 1214 1214 1210 1210 1209 1209 1205 1205 1205 1205 1208 1208 1208 1208 1203 1203 1202 1202 1202 1202 1203 1203 1207 1207 1207 1207 1203 1203 1201 1201 1201 1201 1202 1202 1202 1202 1201 1201 1201 1201 1202 1202 1203 1203 1205 1205 1208 1208 1213 1213 1216 1216 1217 1217 1219 1219 1220 1220 1223 1223 1227 1227 1227 1227 1225 1225 1221 1221 1223 1223 1225 1225 1225 1225 1210 1210 1202 1202 1206 1206 1211 1211 1221 1221 1226 1226 1226 1226 1222 1222 1226 1226 1229 1229 1222 1222 1216 1216 1212 1212 1209 1209 1206 1206 1203 1203 1203 1203 1203 1203 1201 1201 1202 1202 1202 1202 1201 1201 1201 1201 1203 1203 1203 1203 1203 1203 1203 1203 1202 1202 1202 1202 1203 1203 1203 1203 1203 1203 1202 1202 1201 1201 1197 1197 1195 1195 1195 1195 1195 1195 1198 1198 1194 1194 1194 1194 1196 1196 1196 1196 1192 1192 1192 1192 1195 1195 1195 1195 1198 1198 1200 1200 1201 1201 1202 1202 1203 1203 1206 1206 1203 1203 1203 1203 1203 1203 1203 1203 1203 1203 1203 1203 1203 1203 1203 1203 1199 1199 1199 1199 1200 1200 1201 1201 1202 1202 1203 1203 1205 1205 1205 1205 1205 1205 1203 1203 1202 1202 1202 1202 1201 1201 1198 1198 1195 1195 1195 1195 1202 1202 1207 1207 1213 1213 1215 1215 1214 1214 1214 1214 1216 1216 1222 1222 1216 1216 1216 1216 1210 1210 1206 1206 1210 1210 1210 1210 1206 1206 1206 1206 1206 1206 1203 1203 1203 1203 1210 1210 1213 1213 1208 1208 1208 1208 1208 1208 1209 1209 1209 1209 1206 1206 1202 1202 1210 1210 1217 1217 1225 1225 1219 1219 1219 1219 1225 1225 1229 1229 1234 1234 1242 1242 1242 1242 1242 1242 1238 1238 1238 1238 1235 1235 1222 1222 1214 1214 1209 1209 1214 1214 1219 1219 1219 1219 1216 1216 1222 1222 1229 1229 1229 1229 1206 1206
